-27.98	-24.166	-6.5957
54.514	15.207	4.6553
-21.982	-24.919	-5.1313
34.233	30.074	1.9839
49.25	21.819	-7.5404
40.454	30.613	16.57
-56.17	23.212	7.4759
39.349	30.415	6.9618
41.665	28.283	-11.356
43.936	35.195	12.562
35.963	27.868	6.8904
-49.217	-28.081	7.6386
25.222	-10.606	-3.4617
50.694	24.992	-7.7503
10.953	-16.694	15.257
-56.144	-39.436	14.444
58.747	15.074	-4.6429
47.48	11.168	-5.3669
50.957	26.126	-6.9195
-50.589	0.56241	17.067
63.755	14.851	2.4738
57.308	17.336	4.1506
50.584	23.128	-7.3204
9.8194	-36.598	-11.773
43.957	35.597	-11.673
20.244	-12.76	7.3679
-30.905	-19.709	-11.709
42.071	9.2141	3.8506
-8.7043	-22.029	-5.3159
38.745	10.112	5.3001
39.087	31.632	-18.264
38.469	28.736	-13.425
-35.573	18.061	13.888
17.379	-3.6805	-15.06
43.995	35.192	10.014
46.823	18.569	7.7974
5.1689	-28.119	-11.735
-56.337	-41.717	15.029
60.082	16.507	4.4147
43.825	32.933	-1.7229
-38.581	-20.953	-10.268
6.7691	-22.219	-13.93
-42.06	-17.816	12.443
43.67	31.265	8.3194
62.184	15.706	-2.4751
8.7725	-19.833	14.934
40.407	30.895	-8.156
28.874	3.074	-6.1596
-38.808	5.5295	-16.446
35.506	27.87	-5.6651
-47.769	3.5267	17.412
5.0022	-19.669	14.13
-65.62	-21.05	1.0782
-47.769	3.5267	-17.413
60.054	10.649	0.012139
17.78	12.74	-9.2895
-25.804	-24.064	10.163
-60.177	-31.611	11.45
-67.626	-7.792	-0.19055
-56.327	-23.039	-5.7107
12.177	-43.169	8.9254
60.193	14	4.9038
-53.499	-5.023	16.948
-61.601	21.833	-4.1938
62.122	12.054	0.012131
20.24	2.2736	13.414
61.295	15.758	4.2713
21.103	0.059913	-11.45
11.679	-23.665	-12.062
50.842	23.435	6.6882
42.378	34.777	-11.96
-52.126	-42.95	12.463
39.604	28.313	16.653
43.383	35.351	10.348
47.735	35.038	10.58
39.676	32.264	-8.4945
-59.648	-34.428	11.965
62.147	14.643	-4.0363
-52.237	-24.233	-9.4256
42.505	32.937	11.776
-42.309	-27.321	4.9204
-21.982	-24.919	5.131
42.829	24.299	-7.8787
18.524	-10.077	-9.9249
45.679	33.532	10.453
41.077	33.328	-10.735
13.491	-13.093	14.727
15.609	-17.566	-8.9117
23.045	-6.9745	-6.903
-27.661	-20.897	11.891
-4.995	15.483	9.2641
-42.906	-27.154	-6.7545
-51.691	-42.878	13.635
-47.625	-17.717	-12.78
-57.327	-37.325	-13.825
-61.929	5.7248	-1.2817e-05
51.329	22.556	-6.4216
-58.398	-16.022	-12.104
41.903	30.856	-11.601
20.257	-15.11	7.194
60.905	19.156	0.012136
38.163	32.977	-0.013475
-60.178	-31.611	-11.45
-61.243	-16.066	-9.155
-38.563	-19.933	11.185
61.431	17.287	3.763
-34.63	-22.36	-8.0225
-57.878	26.067	1.0003
46.6	33.353	12.439
-58.759	-21.376	8.5092
12.185	-21.1	-11.359
43.568	26.323	-7.4561
30.878	17.614	-6.0129
16.775	21.306	4.5155
42.374	27.481	6.8325
54.994	17.035	-4.7345
-59.877	-30.943	12.568
10.906	-21.464	8.1044
41.018	22.955	7.7219
-55.651	-39.184	-11.178
38.736	20.345	7.0747
32.812	5.7896	-5.1809
-33.521	22.343	-3.5395
16.638	-21.522	-5.1574
62.768	13.594	3.2995
50.584	10.092	-1.8973
49.381	28.102	-7.1798
-63.56	-13.213	6.1453
6.9435	-33.328	10.457
43.542	19.856	8.4485
-41.121	-26.808	6.6233
56.814	12.38	-4.3753
-50.482	-27.003	7.3844
-45.448	9.7076	15.92
-62.269	-1.2475	4.5604
-58.621	-42.324	11.146
63.638	13.865	-2.3233
-63.532	-10.16	5.9019
14.642	-11.884	13.168
-66.503	-23.597	0.23288
37.338	30.595	-4.9562
-66.057	6.1169	2.4866e-06
-61.592	22.071	0.88218
20.526	-5.3203	-10.836
43.995	35.192	-10.015
-65.985	12.872	-1.3202
-41.244	14.544	15.118
-61.026	16.577	-9.3201
6.6879	-11.798	-15.982
-59.469	23.487	5.0266
7.8833	-39.675	-13.045
9.0389	20.947	-5.3396
-56.065	-5.1445	15.372
15.379	18.031	7.2204
39.233	8.4416	-3.9677
16.169	22.91	-2.6794
25.321	-8.5156	4.3231
42.59	8.8097	2.2034
40.411	31.396	13.336
-63.621	13.356	-4.8268
29.606	20.545	-5.3004
39.533	23.726	-14.422
-54.873	-25.374	-14.329
21.849	0.13311	-9.4886
49.117	23.564	-7.9762
-57.681	-40.149	14.893
10.052	-41.029	-13.15
-51.621	-21.098	14.339
-56.594	-37.286	-13.652
10.675	-38.495	9.298
-27.916	-24.558	4.9279
-57.325	10.094	13.038
61.656	13.811	4.2241
8.7724	-19.833	-14.934
21.129	-5.0317	8.7191
-49.482	-29.24	6.7528
34.091	30.537	-0.00036771
54.343	10.769	-1.4359
-65.332	12.939	1.5246
-60.625	24.984	1.6296
-40.849	-4.0972	18.21
-33.119	22.949	-1.7709
-15.888	-21.387	11.44
-14.917	-7.0957	-20.846
-48.816	-28.783	-6.0116
-57.877	-13.404	-12.717
9.6433	-12.628	-15.961
-9.1498	-22.577	-0.00020782
38.331	25.892	-14.184
14.911	16.385	-8.7724
10.696	-32.763	-9.6883
-63.075	-15.764	-6.6864
8.9902	-31.052	-12.81
-62.003	-13.477	8.9295
-38.168	-22.506	8.0183
39.395	33.514	5.0844
1.2123	-14.807	-11.83
-27.87	11.465	15.158
13.063	-18.044	9.5346
-28.986	-4.9828	-22.353
43.78	16.222	-8.5622
-48.233	-23.198	9.5437
-37.323	23.206	1.6067
42.201	18.918	8.7474
25.099	24.858	2.2457
59.509	11.507	2.9426
19.955	-8.5402	8.8531
-52.381	-42.593	-14.824
37.407	29.707	7.1095
24.424	25.767	-0.00033201
-28.514	20.809	7.1671
60.152	19.379	1.4644
40.391	31.444	-8.8345
5.3335	-22.189	13.412
13.262	-16.78	-12.448
-54.488	-48.178	-17.813
35.506	27.87	5.6644
-58.964	-37.845	-14.069
51.332	25.707	-6.3611
-47.407	-25.49	-6.5343
-64.18	19.03	1.4239
6.1208	-30.434	-10.417
39.332	28.576	18.076
50.214	26.208	-7.7459
-18.335	20.245	5.146
-50.093	-45.473	14.551
10.328	-46.567	14.69
-43.144	-28.723	5.3803
47.914	17.572	7.5556
5.2579	-13.49	-15.679
39.011	32.752	-6.0015
43.436	33.419	-7.9821
4.2855	22.63	-2.9412
-51.151	-48.1	18.213
47.829	33.518	11.588
20.685	-3.0634	10.521
-42.954	-28.387	-6.6651
-55.563	-19.503	14.427
-14.777	-11.455	-19.989
55.786	10.803	-1.8296
-59.764	23.611	1.6301
47.6	33.463	10.981
49.381	28.102	7.1789
40.641	33.964	-3.4918
-50.76	-24.923	7.5388
49.165	33.849	-11.467
-63.392	15.297	7.5867
43.35	11.73	-6.0683
-65.537	1.5353	-0.64442
50.957	23.937	6.8863
44.404	13.096	-7.6638
58.978	14.024	-5.1181
52.071	24.687	-5.8692
39.473	27.144	17.127
24.526	-9.8215	4.5303
-41.864	-24.429	7.3424
-56.715	-17.11	-13.238
11.73	-47.49	15.933
-40.625	-26.809	5.8041
27.257	-2.4859	5.0269
-62.088	8.8685	-3.7112
15.113	-44.599	13.799
39.011	32.752	6.0007
12.67	21.744	-4.3221
-69.44	-12.034	0.21597
64.018	17.077	1.6571
23.279	3.143	-8.6133
-65.385	-11.018	1.3124
48.704	35.144	-10.473
-64.448	20.566	-3.9038
-34.622	3.458	19.043
13.491	-13.093	-14.728
39.812	31.136	18.208
-66.463	12.823	-0.76224
-56.571	-22.769	8.4444
-42.08	-12.035	13.606
6.5015	5.1044	-15.504
-21.734	-12.538	-21.762
-29.718	-23.87	6.2554
45.73	19.555	-7.9215
48.766	27.175	7.6178
38.315	31.279	-4.549
50.839	19.424	-6.7132
-40.658	-24.648	-6.4657
39.429	26.83	13.874
11.368	-40.654	-9.5067
4.2855	22.63	2.9407
-51.102	-16.519	-15.742
-50.555	-25.463	-5.9165
-54.499	-17.177	-14.991
-44.893	6.785	-16.376
46.239	30.877	-1.8534
-55.133	-46.65	17.491
19.826	-10.612	-8.4247
-59.321	-34.487	12.632
6.1023	-21.553	8.241
46.105	35.364	13.084
30.679	28.001	1.3573
-63.813	6.3704	-0.70341
49.236	26.017	-8.2248
16.675	9.8897	12.104
39.899	31.135	14.44
-71.564	-24.242	-1.3208
-61.733	-1.3258	5.7819
47.544	15.778	7.84
12.71	-17.116	-13.962
-42.169	-10.445	14.734
-63.926	-3.0133	0.68105
-67.615	-15.92	2.172
-55.633	-30.343	13.688
-59.957	22.377	-7.3365
8.8175	-17.227	-15.411
50.105	19.211	-6.9608
-32.314	-23.046	-6.4037
62.304	15.33	-2.3947
42.188	33.454	-4.5481
-61.694	-4.6522	-7.4167
-49.055	-26.84	7.7524
14.064	-43.121	13.178
-11.233	19.336	5.6869
12.177	-43.169	-8.9259
58.292	11.661	3.263
26.815	-0.17109	6.0466
-64.888	19.061	-1.6438
59.045	10.824	-2.1473
16.978	-20.434	-6.5354
39.187	30.126	-19.019
-44.225	17.479	14.304
-42.169	-10.445	-14.734
-45.559	-15.224	-12.712
-22.154	-2.3632	-22.247
-50.589	0.56241	-17.067
39.188	33.363	-3.5162
-38.633	-10.646	-15.52
38.46	30.51	19.208
-65.896	6.1349	0.70261
16.504	-15.212	-10.069
38.573	32.678	-3.9317
-61.563	1.5176	5.6912
39.717	29.698	17.13
-37.323	23.206	-1.6069
11.807	-43.521	-14.694
15.884	23.453	-0.00030022
34.506	15.217	-6.8593
-51.213	-23.172	9.9127
44.892	25.85	7.6562
47.068	22.929	7.6255
19.823	13	-7.6917
14.695	-20.193	-7.026
-31.289	22.149	-3.6504
-72.201	-26.419	0.33156
56.691	13.247	-4.5327
-22.515	-24.116	10.621
-28.297	-18.119	17.897
-39.36	-7.6054	-17.137
7.691	-28.298	-12.846
-15.888	-21.387	-11.44
-41.452	17.901	-14.072
15.024	-19.41	-7.5034
12.834	-5.1757	-16.659
18.149	-15.777	-8.9672
-50.591	-20.816	-13.066
-42.435	2.2946	17.656
-57.965	15.357	-12.047
28.33	6.302	-6.605
-32.151	21.453	6.7976
8.7802	-41.311	-12.72
35.394	25.578	-5.8587
41.519	25.687	7.1057
45.135	23.903	7.6061
51.218	24.35	6.1252
38.678	32.736	-4.5362
27.126	11.548	-6.6141
-63.514	11.884	-4.9029
35.963	27.868	-6.8912
14.268	-42.19	11.755
-53.957	-24.09	5.8527
16.635	15.975	7.9041
43.663	32.747	-3.5599
42.392	33.74	-6.2284
38.858	22.645	-6.9754
31.428	-2.0647	2.4804
52.072	24.687	5.8684
10.623	-23.721	-13.191
-16.579	5.6093	-17.803
-61.512	18.697	8.0852
50.959	22.833	-6.75
52.338	36.043	-10.246
39.663	25.266	14.031
-53.255	-42.775	16.014
37.686	32.471	-0.013738
-27.097	15.471	11.078
-27.98	-24.166	6.5955
39.83	23.623	-12.128
-16.545	-24.344	-5.0693
-72.601	-26.21	0.3309
-61.633	-18.526	-1.4019e-05
-33.658	-22.899	-5.9564
7.1484	-33.687	11.793
-58.72	-41.115	14.743
-42.333	-25.371	4.0643
-57.07	-39.852	-15.064
-8.5777	-20.619	-8.8921
44.748	18.038	-8.5286
-48.643	-27.561	6.0844
-7.8231	-5.6227	-18.028
49.988	27.116	-7.0451
53.138	25.241	1.5863
-22.153	-2.3632	22.246
46.24	30.877	1.8526
18.012	-0.91599	-15.475
46.261	29.479	-6.2423
-44.465	-20.835	11.628
-64.432	-15.554	1.4697
48.989	26.278	-8.438
41.682	27.481	-10.582
-61.442	22.031	-1.4619e-05
36.571	29.189	-6.7774
-51.414	-43.724	-13.676
-60.788	-2.1184	9.6764
-50.403	24.741	-0.88833
60.385	10.777	1.694
41.085	26.109	-10.218
61.084	12.215	2.7863
34.479	29.513	3.199
-49.353	-47.216	-12.463
36.816	25.632	-6.3951
43.859	32.916	-0.0083384
-57.601	-42.608	14.219
53.415	25.101	0.002338
51.871	26.701	4.0901
-57.227	-19.076	-12.743
-2.1677	-7.3993	-15.081
50.081	24.909	8.1115
-26.879	22.196	2.0088
8.9978	-23.688	-13.537
-49.856	-47.53	-17.686
-55.724	23.959	4.8024
50.113	28.066	6.831
-60.318	-27.838	-10.234
39.603	28.313	-16.654
-66.112	19.115	-0.82176
44.721	33.375	10.082
-17.601	16.812	-9.2583
-40.794	-25.219	-4.5526
18.937	9.3155	10.981
20.685	-3.0634	-10.522
50.603	26.704	-6.6113
11.075	10.496	13.468
-42.048	-27.898	-7.1439
-56.877	-34.259	-13.997
4.5252	-22.142	12.608
63.129	14.331	3.3612
7.1299	-30.048	-9.2087
42.526	35.409	10.93
60.152	19.379	-1.4653
-66.867	-14.773	-3.824
-60.225	-4.5388	8.8742
58.515	15.883	-4.1957
-42.906	-27.154	6.7544
47.568	35.905	12.435
4.1839	-19.367	12.914
-60.954	-1.4872	-7.2258
-58.055	-34.361	-13.537
57.423	11.996	4.1817
13.196	-2.9347	16.901
62.914	15.188	-2.1785
-58.428	-15.821	-10.376
43.921	23.072	7.778
0.70872	-18.049	-8.9757
-55.755	24.291	2.8745
30.423	-1.5451	3.3985
47.937	33.809	-12.289
16.169	22.91	2.6788
26.421	1.8116	7.1395
-48.393	6.9398	16.843
-60.252	-20.216	-1.9118e-05
20.162	-19.502	6.3229
-31.13	22.783	1.7652
41.665	28.283	11.355
5.3644	-27.969	10.4
-43.449	-25.621	-4.7933
-36.11	-19.081	-11.088
12.096	-23.441	-10.908
-53.806	14.141	14.889
-55.769	-34.228	13.844
47.792	22.338	7.8191
-49.767	-12.199	16.678
56.204	14.351	-4.6538
45.797	33.049	-10.503
64.266	15.838	1.4189
12.024	-27.565	-10.774
43.957	35.597	11.672
49.117	23.564	7.9753
34.294	2.012	-0.00036831
-62.65	10.076	-1.0114e-05
29.627	0.52222	-4.6997
50.246	28.391	-6.4399
58.739	13.399	-4.9292
-63.705	-12.71	-6.2166e-06
-51.622	-21.098	-14.339
-63.514	11.884	4.9029
43.437	33.419	7.9813
-62.883	-5.0866	-4.4763
-63.931	14.848	-4.1899
1.2124	-14.807	11.829
44.424	33.236	12.4
-22.429	21.252	3.5897
15.97	-10.31	-13.401
-35.582	-21.018	9.7292
38.434	29.361	-9.842
19.566	-16.793	6.8795
-57.877	-13.404	12.717
50.96	22.833	6.7491
-64.155	23.278	-4.7148e-06
7.908	-36.736	9.7443
-33.67	-16.799	-14.718
37.844	31.605	4.1422
-54.255	-26.62	10.27
50.455	25.369	-7.8327
6.7693	-22.219	13.93
51.836	23.195	-5.5201
53.086	23.756	3.7955
8.8176	-17.227	15.41
-55.295	-42.69	15.966
64.018	17.077	-1.658
56.001	19.928	3.2621
47.791	22.338	-7.82
0.9537	-19.761	7.6281
51.836	23.195	5.5193
-33.802	21.713	6.999
38.074	25.945	-9.6759
12.154	-38.635	-11.165
61.18	16.472	4.08
10.906	-21.464	-8.1049
59.066	19.993	1.5041
-10.872	9.9323	14.365
-45.559	-15.224	12.712
55.786	10.803	1.8287
-59.17	-18.513	9.5822
-31.968	15.311	-12.521
13.067	-47.395	9.2701
60.128	18.751	-2.4966
55.313	23.292	1.5813
9.3872	-39.164	13.184
-56.847	-0.70209	-14.727
-4.9951	15.483	-9.2645
23.935	9.9065	-6.8117
42.188	33.454	4.5473
-33.254	-22.432	9.5075
60.726	18.533	2.7747
8.7635	-33.311	-12.413
38.974	16.592	-7.1998
49.501	27.247	7.1401
-57.296	-44.735	13.32
43.724	32.288	11.379
4.5676	21.997	3.8187
52.463	24.198	-4.5907
11.679	-23.665	12.061
7.7138	-41.672	-12.948
39.774	29.674	-9.3549
14.268	-42.19	-11.756
-42.06	-17.816	-12.443
-41.245	14.544	-15.118
-61.694	-4.6522	7.4167
-55.111	18.875	12.448
27.953	26.344	-1.9603
23.558	0.66952	8.4958
-37.982	13.88	-15.625
4.7435	20.956	5.3042
41.857	23.35	-8.0724
-56.145	-39.436	-14.444
-63.925	-3.0136	-1.3406
-59.449	23.109	0.94182
-12.098	21.818	-2.1259
41.682	27.481	10.582
51.827	26.032	5.9766
15.113	-44.599	-13.8
59.066	19.993	-1.505
58.74	13.399	4.9282
-55.03	-33.808	-12.949
61.169	13.593	4.4778
51.098	27.394	-6.1925
-53.708	-48.55	14.007
58.515	15.883	4.1948
-59.059	-27.903	13.295
-55.133	-46.65	-17.491
-58.05	1.8623	-13.931
-60.575	14.166	-10.089
12.024	-27.565	10.774
-62.424	-19.151	-1.3802
48.399	27.559	-7.8172
3.8665	-17.66	13.554
22.125	5.7506	-8.6945
9.2675	-28.347	13.202
-57.326	10.094	-13.038
-62.776	14.935	-9.8138e-06
40.319	33.801	1.796
11.032	-36.54	10.216
13.774	-15.404	10.868
-50.063	-24.839	7.8598
17.379	-3.6805	15.06
-21.734	-12.538	21.762
50.219	26.679	-7.576
47.905	24.427	8.1077
-43.175	-25.136	-6.6506
-2.3555	-4.5265	16.439
-54.547	-39.25	14.384
25.39	22.998	-3.9325
43.921	23.072	-7.7788
-59.742	9.7022	11.717
51.348	12.127	5.363
8.3706	-37.071	-12.512
50.08	25.404	8.1833
-55.651	-39.184	11.178
-58.668	-34.162	-11.395
-2.9815	-20.28	5.548
-57.737	25.49	-1.7328
-38.563	-19.933	-11.186
-57.519	-24.923	-9.2666
39.818	30.499	-17.902
-42.954	-28.387	6.665
11.718	-29.485	10.728
-7.8502	-15.438	-14.506
60.458	17.541	-3.8364
38.331	25.892	14.184
50.105	19.211	6.9599
-61.321	-23.755	-10.083
39.188	33.363	3.5154
-10.872	9.9323	-14.365
41.317	32.485	-10.822
-62.032	2.4512	-1.2517e-05
18.276	-13.079	9.7784
11.053	-19.882	14.136
42.596	34.14	-7.8929
39.188	30.126	19.018
31.428	-2.0647	-2.4811
51.724	26.429	0.00049298
-57.296	-44.735	-13.32
50.113	28.066	-6.8318
-41.783	4.9952	16.328
-60.94	25.487	0.94076
-57.198	-46.174	13.563
2.7742	-17.407	11.177
-51.301	-48.029	-11.571
12.869	-18.662	-11.857
39.744	26.177	15.887
39.332	28.576	-18.077
2.2802	-15.48	-12.098
-27.683	21.732	-3.8753
13.229	-45.385	16.064
52.434	21.029	5.7426
-60.705	-27.924	-12.325
62.28	16.892	-3.4583
-64.114	17.416	2.8001
12.822	-44.934	-8.9533
38.744	10.112	-5.3008
-59.252	-20.739	12.188
-58.727	-40.363	14.924
-2.3557	-4.5265	-16.44
42.694	14.506	8.3386
55.021	11.568	-3.4411
-64.027	1.7051	1.1143
-33.119	22.949	1.7706
-48.747	-24.693	8.0578
10.417	-43.946	14.464
39.222	33.11	7.1862
22.176	17.765	5.4666
10.317	-28.008	-13.241
2.2802	-15.48	12.098
41.562	26.733	10.407
39.83	23.623	12.127
-45.969	-18.105	-12.785
9.2946	-36.37	-9.3632
47.905	24.427	-8.1085
12.896	-40.283	11.262
43.188	21.532	8.1538
-42.556	23.586	-1.8301
49.504	28.568	7.0123
-63.186	-15.53	-4.4143
29.081	22.675	-4.4994
7.505	-40.214	11.011
20.858	23.724	-2.2182
-40.729	-28.051	-5.7381
-58.398	-16.022	12.104
8.3916	-29.947	8.5286
-22.111	-8.1532	22.5
-70.963	-16.691	0.92427
37.339	30.595	4.9555
42.252	12.126	-6.3682
17.944	2.8601	-14.971
48.915	29.113	6.3384
8.8139	-21.373	14.404
-55.133	-31.017	-11.695
-55.318	2.5136	15.405
13.484	-16.449	-10.367
-56.545	-37.17	11.163
-16.545	-24.344	5.069
12.031	-21.373	7.3502
63.426	13.496	-1.0193
-2.6245	-12.285	13.486
19.954	-8.5402	-8.8537
-49.824	-28.74	5.7688
62.203	18.428	-1.7292
9.1543	-36.636	11.945
-40.658	-24.648	6.4655
21.651	19.896	4.6656
19.823	13	7.6911
-37.825	17.946	-14.723
-38.383	-23.794	5.3768
38.634	24.151	-6.217
6.7522	2.5154	16.027
44.721	33.375	-10.083
41.507	34.624	-7.8209
25.764	21.142	4.4809
7.4367	-37.412	-10.9
-67.796	-13.185	-2.9576
11.676	-38.562	12.504
20.494	-7.2967	-8.9
39.455	32.053	-7.5387
-2.1676	-7.3993	15.08
14.614	-21.411	5.7012
38.868	30.032	6.7485
-30.934	12.491	14.591
9.2947	-36.37	9.3627
-59.449	23.109	-0.94186
7.6529	-24.383	-13.279
44.727	34.448	-9.8597
38.111	27.869	-13.256
53.96	23.398	-2.6362
51.218	24.35	-6.1261
56.645	21.835	-1.6343
45.797	33.049	10.502
-16.011	-19.631	-14.38
-57.847	-31.336	10.852
40.171	34.418	8.1772
-54.133	-20.248	14.928
-56.936	-40.162	-10.74
39.195	29.962	13.566
-58.914	-42.36	14.827
-7.7731	-8.824	-17.606
8.7803	-41.311	12.72
57.832	10.967	2.3483
-11.917	20.65	3.8173
52.021	26.573	2.7665
-37.982	13.88	15.624
28.272	24.194	3.8912
-58.406	18.49	-11.293
9.5087	-39.474	8.8599
-59.334	22.924	-0.0012125
36.907	4.9913	-0.00037792
51.014	27.963	4.5557
5.0079	17.193	9.8
-2.5733	-1.7902	-16.858
12.311	22.396	2.8132
-58.19	-37.76	14.391
39.087	31.632	18.263
-49.988	-26.943	7.612
-62.782	22.631	1.7628
10.36	-28.986	9.16
-72.334	-22.836	-0.57642
7.9239	-33.316	12.144
16.638	-21.522	5.1568
50.476	15.902	-6.6818
-47.028	-20.992	11.733
26.18	-9.7618	-0.00033831
39.948	25.333	12.208
1.1237	-20.721	-5.7465
41.971	21.809	-8.4632
33.227	18.904	-6.3298
40.691	30.631	11.713
5.7465	-24.622	13.037
-8.0379	-17.862	12.296
6.8436	-33.79	-11.165
-65.553	-7.3651	0.73488
-71.044	-15.88	0.29188
16.775	21.306	-4.5161
27.712	26.779	-0.95818
-58.667	-34.162	11.395
45.071	35.373	-10.63
-59.462	-24.413	-12.902
-48.29	-28.632	6.5846
53.889	10.877	0.0070972
43.234	33.026	-6.4365
-60.339	1.6451	-12.144
-55.262	-28.968	-10.688
-62.095	22.308	-1.527
-5.4548	19.093	6.1068
-73.561	-24.676	1.7303
40.531	33.787	-2.8986
50.957	14.928	6.6666
33.098	4.9355	4.7895
-55.769	-34.228	-13.844
45.265	27.755	7.2366
7.9797	-41.636	-9.2666
42.952	22.966	-7.891
56.678	22.308	0.0061612
8.6755	23.188	-0.00027382
-41.213	-28.05	-6.5373
42.082	31.094	-9.0271
18.208	-20.383	6.3907
11.567	-27.588	12.048
-28.889	19.504	-10.065
12.834	-5.1757	16.658
43.933	34.233	-12.656
53.679	11.745	3.9995
-50.61	-28.24	7.2794
62.41	12.732	-3.1316
51.347	12.127	-5.3638
16.48	-8.2807	-13.794
38.634	24.151	6.2163
-54.352	-0.029186	-16.08
-53.255	-42.775	-16.014
12.849	-42.087	-14.135
-11.233	19.336	-5.6873
19.54	5.468	12.705
-31.807	-22.828	-7.3782
49.237	26.017	8.2239
-35.899	-22.886	4.7362
-33.62	19.821	-11.939
-38.298	-12.954	14.227
-61.4	4.9106	11.202
-55.363	-28.351	-14.064
17.828	-17.313	-8.3028
6.1264	-17.147	-15.095
-38.58	-20.953	10.268
39.84	27.357	11.766
-38.957	8.2373	-15.994
-54.945	-37.019	-12.784
-18.586	21.064	-3.5255
6.9019	-0.19659	-16.478
39.195	29.962	-13.567
9.8637	-36.481	9.2832
45.997	35.907	-12.422
6.7492	-30.605	12.29
-54.886	-41.343	11.386
42.369	33.682	-1.856
12.446	-19.937	-8.6622
47.6	33.463	-10.982
58.853	20.36	0.0086656
-63.971	23.191	0.88126
-60.788	-2.1184	-9.6764
-34.435	21.438	-9.5498
-56.187	-22.825	-3.4114e-05
41.378	27.609	8.1318
40.915	24.714	7.0662
-49.218	-28.081	-7.6387
36.572	29.189	6.7767
57.007	10.755	1.3737
19.57	-7.7143	10.652
-52.126	-42.95	-12.463
42.881	28.743	11.095
30.422	-1.5451	-3.3991
22.442	-3.5092	-7.6425
-60.705	-27.924	12.325
16.504	-15.212	10.068
22.125	5.7506	8.6939
63.327	14.506	0.012127
10.478	-33.032	-11.833
-48.105	-27.405	-6.6721
-22.013	-20.223	15.442
20.257	-15.11	-7.1946
-41.949	-7.4089	-16.896
23.246	-17.903	-0.00032752
16.78	-13.346	10.646
47.693	12.123	-6.4946
-64.653	-2.9902	-1.4974
34.645	28.729	-4.2725
-29.718	-23.87	-6.2556
46.764	33.915	-10.686
-56.484	-33.893	11.223
-18.082	22.482	-0.00017482
-64.201	13.055	0.76291
-16.006	-18.266	16.363
-7.9305	-19.081	-10.116
39.229	29.941	12.11
-58.7	-37.425	-11.624
63.426	13.496	1.0183
11.052	-19.882	-14.136
-54.487	-48.178	17.813
-43.78	21.01	-10.65
-36.235	-21.523	8.0087
-48.443	-47.553	15.361
62.794	17.872	-2.2798
-63.393	-3.0304	0.25403
8.3707	-37.071	12.511
8.7317	22.219	-3.43
33.88	3.062	3.1835
64.265	15.838	-1.4198
38.94	28.321	19.187
-58.312	-21.735	-2.6319e-05
40.658	30.005	-7.7645
11.315	-36.331	10.904
52.328	25.483	5.3094
-33.131	-18.176	-12.002
-64.375	-11.95	1.2821
-73.313	-25.863	2.5521
46.823	18.569	-7.7983
-50.571	-27.28	6.8096
-17.601	16.812	9.2579
42.732	29.939	-12.192
-62.266	-10.133	-8.5883
38.141	27.623	-11.946
40.456	28.165	11.339
-55.724	23.959	-4.8025
15.485	-44.694	10.599
-30.934	12.491	-14.592
-33.51	-9.6928	-20.541
13.144	22.767	2.3837
-69.37	-24.74	1.5889
12.338	-19.101	13.306
18.524	-10.077	9.9243
44.089	30.295	5.868
-42.148	-29.087	-5.9621
53.16	15.903	-5.5287
26.04	-9.5911	-3.4995
-51.912	3.0449	-16.363
-53.647	-25.635	13.286
10.56	-21.948	-13.58
11.315	-36.331	-10.904
-55.714	-46.564	-11.154
-52.425	9.5435	-15.989
52.328	25.483	-5.3103
50.45	24.778	-8.0092
-3.7175	12.573	11.558
-43.1	-27.498	5.4374
14.426	-13.581	-11.411
40.119	30.008	10.301
4.8967	-24.37	12.356
11.145	-45.961	15.611
-55.883	-44.76	-10.998
-27.652	-19.504	15.454
10.341	-21.181	-0.00027982
31.046	-2.3266	-0.00035631
-55.861	21.464	-10.374
-58.054	-34.361	13.537
-42.828	23.218	3.0316
47.259	9.7367	4.4084
40.731	30.715	15.108
6.0607	-23.226	-9.0544
40.456	31.215	-16.513
59.12	16.975	-4.2285
7.6911	-28.298	12.845
37.121	27.716	9.1183
11.807	-43.521	14.694
1.9969	-20.906	-0.00024891
42.879	8.8646	-0.0021194
14.622	-47.341	9.6917
-50.483	-27.003	-7.3845
11.286	-23.574	-8.6327
17.78	12.74	9.2889
63.085	13.656	0.012128
25.099	24.858	-2.2464
5.0078	17.193	-9.8005
43.569	26.323	7.4554
42.559	35.028	9.5086
-58.728	-40.363	-14.924
47.801	35.249	12.871
10.464	-44.072	-9.119
-61.699	20.488	-6.7799
12.368	-40.402	10.35
20.93	-20.559	4.7919
36.015	6.9611	-4.1258
13.358	-15.04	-14.09
-62.226	8.2349	-1.1616e-05
9.387	-39.164	-13.185
-56.572	-22.769	-8.4444
-32.151	21.453	-6.7978
43.671	32.48	8.3215
34.364	1.9517	2.338
18.718	16.531	6.775
-42.36	-0.20439	18.671
-50.35	-45.383	-12.479
40.163	17.404	8.1192
40.478	30.025	-15.533
13.144	22.767	-2.3842
-30.452	5.022	31.332
1.8222	-3.1498	29.744
-30.851	-13.257	-26.086
-0.14944	2.4794	-28.813
-12.632	-0.96061	-28.813
-25.851	-7.8837	-9.0456
51.374	-0.029667	31.332
51.374	5.6703	31.332
-10.85	5.4572	-33.318
-33.539	5.6703	21.951
-18.286	-15.257	-27.49
-29.242	-13.257	21.951
52.996	6.189	-31.287
-15.088	10.543	10.978
-12.197	2.6166	29.744
31.406	2.8255	-34.318
44.561	-13.257	-29.974
-4.4547	-6.9723	-35.818
54.08	6.922	28.626
-32.961	8.822	2.3372
-9.4066	-10.356	29.744
-5.2404	-6.3197	-36.318
-15.46	10.543	9.1566
1.0187	10.543	15.328
-0.23823	5.7582	-18.428
-19.301	-15.257	-28.733
-32.961	5.022	-27.663
-2.7693	-3.5266	-27.644
-32.729	5.022	27.407
-32.961	-0.029667	12.337
45.691	3.6936	26.244
42.415	5.5849	29.744
-1.8066	0.30513	29.744
-33.539	-4.478	12.337
54.461	5.022	2.3372
0.03373	5.6142	-36.015
-21.033	-13.257	24.066
39.162	2.8416	29.744
-33.539	-1.9297	-17.901
4.3311	10.543	24.422
-0.08934	1.7479	21.951
-30.851	-7.8837	-4.449
-9.9805	7.4008	-28.813
-30.851	-7.8837	-24.046
0.50149	10.543	24.113
-1.7429	-5.7828	-35.818
54.461	9.189	2.2183
49.078	-13.257	-22.15
-3.7981	11.043	9.2554
-32.074	-7.2566	24.744
-7.0881	10.543	10.978
-10.555	6.0896	29.744
53.883	5.022	-30.549
45.846	-7.2566	26.204
-12.972	5.9382	-27.452
-12.4	11.043	25.106
49.444	8.1995	31.713
-15.991	1.343	28.044
-11.728	5.9379	-33.318
-13.076	0.30458	-26.499
-33.539	-1.9297	-17.663
54.461	-4.478	-7.9007
-23.813	-13.257	-29.845
-30.851	-11.908	0.25273
-30.851	-11.908	-20.747
-0.65199	-0.87183	-24.19
-25.851	-7.8837	-25.449
-15.684	0.026203	29.744
-12.193	-1.8061	21.951
-25.851	-10.56	-16.046
50.309	-7.2566	-29.621
-31.693	10.743	26.657
54.08	1.222	28.626
-1.4522	-2.2324	-27.648
52.011	-6.3138	27.938
-30.851	-13.257	11.253
52.997	1.222	30.249
-16.158	0.72026	28.044
3.2548	-3.171	28.344
-27.612	-15.257	-25.192
-5.6066	-3.1498	29.744
49.461	-1.9297	31.713
-6.4786	8.3189	-26.499
46.159	-15.257	14.469
53.883	6.922	21.951
-8.2324	2.1747	29.244
-4.8269	-4.5641	-33.318
29.001	4.4318	28.244
4.173	11.043	17.269
54.461	-0.678	-7.9007
-6.3229	10.543	11.553
3.8277	10.38	-16.321
47.635	-15.257	15.098
49.461	-4.478	31.713
-8.6439	-4.5	-24.213
40.762	-7.2566	27.213
53.883	1.222	2.3372
-33.539	9.189	17.025
54.461	5.022	-27.663
-33.539	1.222	12.337
51.773	-7.2566	21.951
-31.701	8.822	29.091
51.374	-6.3138	31.332
3.7873	10.543	18.21
46.923	-15.257	14.724
49.444	-1.9297	27.213
-11.732	10.543	22.856
-4.061	7.7847	-25.338
-30.851	-10.56	-22.046
-33.539	3.7703	-7.9007
-28.539	5.6703	31.713
-32.961	-4.478	21.951
-11.929	8.0234	-36.318
-29.968	6.922	30.852
49.293	-13.257	-27.49
0.95223	3.0907	-36.015
-0.10153	1.3477	-33.318
-33.539	8.4656	-29.34
45.765	-15.257	24.259
-7.3945	8.2614	-28.813
53.883	-0.678	-7.9007
-3.6689	10.543	24.422
-0.86122	6.6161	21.951
-33.158	-1.9297	28.626
-0.80657	1.5248	29.744
-1.1358	5.3	-28.899
54.461	-6.3138	26.713
-12.062	2.6194	28.744
48.836	-15.257	16.162
49.444	-7.2566	29.744
-2.1291	6.5078	-25.338
5.5732	10.482	-28.987
49.461	5.6703	31.713
-8.2324	2.1747	29.744
-18.501	-13.257	22.164
-33.539	5.022	-27.663
-2.8761	8.3068	21.951
51.773	-13.257	-26.086
40.762	-6.3334	27.213
53.883	-5.7297	-27.663
-5.1312	11.043	18.466
-32.961	-1.9297	-17.663
1.7604	11.043	15.055
-0.9091	7.9982	-36.318
-8.6887	-4.4662	-32.511
-10.407	4.5248	29.744
1.2287	-2.6194	28.344
49.293	-15.257	16.824
1.8222	-10.356	29.744
-11.871	5.7594	-24.138
44.963	-15.257	19.324
-6.663	-3.8457	-8.118
-30.851	-7.8837	-0.04556
-29.387	-7.2566	-29.621
-32.729	5.6703	27.407
-28.539	3.7703	31.713
-7.4058	-7.2169	-35.818
1.6771	10.543	25.553
3.9035	10.543	22.328
-2.8161	7.0318	-32.511
-12.632	-0.96061	-24.213
-0.79218	1.3711	31.096
40.762	-6.3334	26.512
53.883	5.022	2.3372
-2.8761	8.3068	-33.318
-26.539	-11.314	31.713
-32.961	-4.478	12.337
-25.539	8.1995	31.713
-14.424	11.043	15.146
-24.28	11.043	16.255
-32.961	6.922	-27.663
48.687	-7.2566	-30.705
53.883	5.022	-17.663
-0.40194	1.7479	-23.125
-33.539	6.922	-17.663
-9.504	-4.18	-32.511
53.883	-0.678	2.3372
-13.378	10.543	18.707
-12.258	5.1989	-33.318
-10.25	9.9975	-33.298
-4.0182	-5.5184	-36.015
-33.539	-5.7297	-17.901
-30.851	-7.8837	5.9544
54.461	1.222	26.713
-1.4512	-2.2269	-28.825
-7.1066	1.5248	29.744
-13.78	-0.84243	-33.318
40.762	-5.9297	27.213
-18.67	10.743	-29.577
-1.8066	-3.1498	29.744
0.74917	11.043	10.269
-3.4811	0.026203	29.744
-30.851	-11.908	-11.747
30.075	2.8416	29.744
42.291	-13.257	15.098
-0.3839	3.6279	-24.225
51.374	-5.7297	31.332
42.639	-15.257	23.751
43.107	6.2771	26.244
-6.8524	6.0896	29.744
-27.291	-13.257	17.551
-11.431	6.2457	-28.825
-18.872	10.743	-16.436
-25.289	-15.257	-29.216
54.461	5.022	-30.549
-11.669	10.543	10.422
-0.57046	-4.8703	-35.818
-30.851	-11.908	16.233
-0.13968	1.1092	-28.813
-30.851	-10.56	-9.0456
-0.68997	4.4931	-27.699
-17.62	-13.257	-25.192
-12.059	-2.006	-33.318
-33.539	-5.7297	-17.663
1.3722	4.5064	-36.318
-13.334	11.043	25.501
-2.7881	-2.2862	-33.318
-19.139	10.743	-17.221
-33.539	-0.678	-30.549
-1.7101	-0.85158	-33.318
40.288	-15.257	17.551
-11.871	5.7594	-25.338
-3.1938	5.4923	31.044
-25.851	-10.56	-7.0456
-32.729	8.822	27.407
-7.3645	-6.7186	-36.318
-9.504	-4.18	-28.738
-12.939	3.7046	-25.338
53.883	-0.678	26.388
-11.503	-2.6725	-25.413
-28.987	-6.3138	29.363
53.883	5.6703	12.337
-0.57046	-4.8703	-34.255
-10.407	4.5248	28.744
2.4611	11.043	16.713
-25.851	-7.8837	-23.046
-11.983	0.019383	-8.118
-1.6589	2.5625	31.244
-17.62	-15.257	-25.192
-33.158	-0.678	28.626
54.461	5.022	-7.9007
-11.871	5.7594	-23.511
-1.1418	0.85062	-33.318
54.461	9.189	-27.782
-6.8993	11.043	22.534
3.6782	11.043	15.387
-10.85	-1.9613	-33.318
-3.1806	3.9392	28.744
-33.539	-0.678	-27.663
-5.8982	-0.87425	28.544
53.652	5.6703	27.407
-32.961	1.222	26.388
-25.626	-11.314	25.298
49.444	-6.3138	31.713
-33.539	3.7703	17.025
-32.961	-4.478	-27.663
-25.851	-10.56	10.551
-12.741	-0.75637	-28.738
54.461	1.222	12.337
53.883	1.222	-30.549
52.623	5.6703	29.091
40.446	-15.257	-22.847
-14.333	11.043	25.328
43.38	-15.257	24.066
41.959	-15.257	23.321
-30.851	-7.8837	-17.449
-18.099	-15.257	21.467
-2.7422	-5.0431	-36.175
53.883	-5.7297	-17.901
-1.6925	7.6715	-36.015
40.633	-15.257	16.824
49.444	0.82493	29.744
-13.237	1.7479	-23.125
0.59104	10.543	10.422
-33.539	-0.029667	17.025
-3.3751	-2.7774	-8.118
-13.218	10.543	14.739
-0.42097	4.6784	31.096
-33.539	5.6703	-7.9007
1.8451	4.6687	-35.818
-13.076	0.30458	-25.338
-3.3751	6.2732	-8.118
-4.265	6.8015	-33.318
-12.107	1.5248	29.744
4.0082	-2.4175	28.344
-30.851	-11.908	4.2527
-14.323	10.543	18.553
-25.851	-7.8837	4.551
-29.968	8.822	30.852
-11.093	2.3754	31.096
-9.6957	4.7392	30.944
-5.2181	10.543	21.739
-25.851	-7.8837	-20.449
-30.851	-11.908	-17.747
-32.729	-1.9297	27.407
53.883	6.922	-7.9007
-30.851	-10.56	3.551
-1.5482	1.2443	30.944
-16.614	0.26435	28.044
4.9081	10.685	-16.032
0.89342	4.5248	29.744
-12.741	-0.75637	-25.338
-10.45	-4.811	-33.318
31.149	6.3545	28.244
-30.851	-13.257	0.25273
52.996	-6.8547	-32.818
-27.134	-13.257	21.467
-32.961	5.022	-30.549
-12.636	-0.99726	-32.511
-33.539	1.222	21.951
-30.851	-7.8837	-1.0456
-1.6564	6.0078	-32.511
-15.28	11.043	16.255
-33.539	1.222	17.025
-11.295	9.4589	-33.779
2.2099	3.2285	-35.818
-32.961	5.022	12.099
54.461	-0.029667	-17.901
-4.061	7.7847	-28.738
-6.663	9.4806	-36.015
8.6769	0.82493	29.744
-33.539	1.222	26.713
-30.851	-7.8837	2.551
54.461	6.922	-30.48
-10.529	8.4446	-36.015
-1.8066	6.0896	29.744
40.762	-0.33337	26.512
-33.539	-0.029667	-17.901
32.198	-0.40144	-34.318
-25.851	-7.8837	-16.046
-4.061	7.7847	-32.511
54.08	-0.678	28.626
-26.489	-15.257	-28.153
0.72021	11.043	9.2554
-32.961	-5.7109	-28.361
2.3325	1.7479	-35.818
40.446	-13.257	-22.847
54.461	-1.9297	-7.9007
-18.501	-15.257	22.164
-10.923	6.7545	-28.738
-15.684	8.1995	29.744
54.461	9.189	26.713
-11.862	11.043	16.06
54.461	3.7703	21.951
2.6129	0.026203	29.744
-32.961	8.822	-7.9007
-6.5588	0.57597	28.744
-32.961	5.6703	-30.549
9.4922	-5.9297	27.213
-30.851	-13.257	6.2527
-33.539	5.022	12.337
1.8222	8.1995	29.744
1.9571	4.7869	28.744
-33.539	-5.7297	-7.9007
52.996	10.743	24.744
-23.813	-13.257	14.469
52.623	-0.029667	29.091
-32.961	-0.029667	-27.663
-30.851	-13.257	13.253
-13.539	10.543	16.713
-9.9508	-2.7774	-8.118
54.461	-4.478	12.337
-26.489	-13.257	16.162
-32.074	10.743	24.744
-9.4066	-3.1498	29.744
1.5551	5.6708	31.096
-4.1369	-4.3002	-28.825
-12.632	-0.96609	-26.447
-13.78	4.3382	21.951
-4.4547	10.468	-35.818
-31.701	5.6703	29.091
-6.3646	2.3308	29.744
-14.237	1.7479	21.951
-2.1291	6.5078	-24.138
39.162	0.82493	29.744
50.89	3.7703	30.852
-12.32	5.0214	-32.511
-32.961	-0.678	12.337
-10.555	0.026203	29.744
44.053	6.5305	29.744
0.43577	7.2731	-35.818
-30.452	3.7703	31.332
-25.539	6.0896	29.744
42.639	-13.257	-20.563
-32.961	1.222	-27.663
-7.4445	-4.7411	-32.511
36.162	6.3545	28.244
-5.2196	-4.6653	-26.499
-1.7181	0.50039	28.744
-7.4861	0.25699	31.096
-12.67	-0.016027	-23.125
-32.961	1.222	-30.549
48.687	-13.257	-30.705
-13.539	11.043	23.713
53.883	5.022	-17.901
-30.851	-7.8837	-15.046
52.996	-3.3138	-31.287
4.3387	-3.2452	29.744
53.883	-0.029667	2.3372
-8.1879	1.349	28.744
51.531	10.743	28.28
-33.539	-4.478	-27.663
-25.851	-7.8837	10.551
-10.276	-6.4899	-35.818
-9.8108	3.6855	28.744
-13.222	1.3102	-33.318
53.883	3.7703	2.3372
48.278	-15.257	-28.733
-8.4566	3.3989	29.744
-30.851	-7.8837	-20.449
-33.539	-0.029667	12.099
40.064	-13.257	18.324
-7.428	8.2768	-25.338
-13.232	11.043	21.939
-23.597	11.043	15.257
-7.3997	8.2634	-24.19
-30.452	5.6703	31.332
-11.003	-3.1894	-26.499
54.461	5.6703	21.951
-0.37878	3.6227	-26.455
-32.961	1.222	12.337
-33.539	-6.3138	-17.782
-33.539	5.022	-17.901
-6.663	1.7479	-33.318
-28.539	6.922	31.713
-6.8524	-10.356	29.744
-30.851	-11.908	-10.747
-5.8982	-0.87425	29.744
-23.418	-13.257	24.259
51.374	1.222	31.332
-4.1391	-4.3029	-24.194
-6.9813	10.543	15.328
-12.67	3.5118	-23.125
-30.851	-10.56	7.9544
-0.35561	-0.1041	21.951
-32.961	-4.478	26.388
39.162	8.1995	29.744
54.461	-0.678	12.337
-33.539	-2.2538	-31.287
3.0944	10.543	21.816
0.03373	-2.1184	-36.015
-31.701	1.222	29.091
51.374	-4.478	31.332
-33.539	-4.478	12.099
-32.074	7.689	-30.885
-9.3077	9.0142	-36.015
-12.461	6.6114	-17.379
-19.01	-13.257	-21.527
-33.539	-5.7297	17.025
-25.851	-7.8837	-24.046
-5.1444	8.1275	-27.655
49.48	-15.257	-22.847
-3.9322	-4.2317	21.951
-2.436	-3.2865	-33.318
-32.074	9.189	21.951
-3.3646	5.3308	29.744
-3.4443	7.4796	-32.511
49.444	-6.3138	29.744
49.638	-15.257	-26.763
-33.539	-1.9297	-27.663
-19.944	-13.257	15.098
-0.73939	-3.2225	-36.015
-1.9031	-2.786	-25.338
-24.576	-15.257	14.724
-25.851	-10.56	-8.0456
53.883	-4.478	-17.901
53.883	-0.029667	26.388
54.461	8.7871	-29.787
-3.8611	-5.9501	-36.318
-7.3755	0.46272	29.744
-30.851	-7.8837	-2.449
-12.337	10.543	15.114
-27.58	-13.257	19.926
-12.587	6.7184	-36.015
53.883	8.822	-27.663
-30.851	-7.8837	-23.046
-17.86	0.26435	28.044
-13.217	1.2444	-25.338
-0.37999	3.6239	-27.648
-5.5389	11.043	23.713
49.461	1.222	31.713
-7.7818	7.2285	-33.318
40.848	-15.257	-22.15
1.1702	11.043	17.968
-11.431	6.2457	-27.625
52.996	-4.2566	-34.318
4.0824	-2.289	29.744
-30.851	-10.56	4.551
-8.421	-4.5863	-33.318
-30.851	-13.257	-20.747
-12.636	-0.99726	-23.511
-0.14822	2.4827	-27.644
53.883	-5.7109	-28.361
-33.158	-6.3138	28.626
-5.9201	-7.2169	-31.805
-4.8968	5.5862	31.096
-32.074	6.922	30.249
-11.623	-5.7566	-33.916
-30.851	-10.56	-20.449
-18.432	1.343	29.244
-4.061	7.7847	-24.138
47.694	2.8416	29.744
-7.3814	-8.964	30.144
-27.291	-13.257	-26.763
-7.0881	10.543	24.978
53.883	8.822	-28.361
-0.62619	-0.85401	-32.511
-30.851	-7.8837	-11.449
54.08	-0.029667	28.626
-12.465	-3.1203	-33.318
-18.752	1.343	29.244
-8.6887	-4.4662	-23.511
-25.851	-10.56	15.954
-2.1291	6.5078	-28.738
-19.01	-13.257	22.787
-32.961	-5.7297	-17.901
44.963	-13.257	-19.99
52.996	-0.72283	-33.118
-13.757	-2.3481	-36.318
-3.3085	-3.9054	-26.499
-17.814	-15.257	20.715
-33.539	-2.2538	17.025
54.461	5.6703	-17.901
-7.5063	-4.7555	-26.455
-15.185	10.543	8.5769
53.883	-1.9297	2.3372
53.883	-4.478	26.388
-25.851	-7.8837	-22.046
-21.814	-15.257	-20.055
9.4922	-1.9297	27.213
-11.983	3.4764	-8.118
-30.851	-7.8837	14.954
53.883	-0.029667	12.099
-25.851	-10.56	-4.449
41.357	-13.257	22.787
-30.851	-10.56	10.551
31.149	6.0896	29.744
-31.693	-7.2566	26.657
-31.074	10.543	5.0506
-28.987	-7.2566	29.363
54.461	-0.029667	-27.663
-5.1164	8.137	-26.499
54.461	-5.7297	12.337
-3.9322	-4.2317	-23.125
-25.851	-7.8837	-12.449
-22.616	-13.257	-29.99
45.365	-15.257	-29.974
54.461	-4.478	21.951
-4.0409	3.3965	31.244
-4.0965	10.543	8.3276
52.997	-4.478	30.249
-33.539	5.022	-7.9007
-25.851	-7.8837	-6.0456
49.461	5.022	31.713
-30.851	-10.56	-14.046
-9.9254	7.4114	-32.511
54.461	-4.478	-17.663
52.996	-5.7566	-33.916
-33.539	5.6703	12.099
-2.8161	7.0318	-23.511
5.8135	10.529	-17.214
-1.6564	6.0078	-26.499
-22.539	11.043	16.713
-33.539	8.822	-17.901
-24.94	-15.257	23.751
-30.851	-11.908	-4.7473
4.3311	10.543	10.422
8.6769	-10.356	29.744
-13.024	0.089623	-33.318
-21.033	-15.257	-20.248
53.652	3.7703	27.407
-30.851	-7.8837	-16.046
46.773	-13.257	-31.086
-23.315	-13.257	26.204
-2.8761	-4.811	-33.318
52.996	8.7871	-29.787
-4.3079	7.8852	-33.318
50.89	-0.029667	30.852
-10.664	-5.1827	-36.281
49.444	-1.9297	26.512
43.959	-5.9297	27.213
54.461	3.7703	26.713
-25.851	-7.8837	-18.449
-1.0644	-1.6973	-27.699
-33.539	8.822	12.099
54.08	-5.7297	28.626
-0.98074	2.1747	29.744
-13.186	2.3866	-28.813
-26.946	-15.257	-27.49
-30.851	-10.56	-24.046
-0.86122	6.6161	-28.459
-7.5301	-4.7683	-33.318
3.1262	-3.2452	29.744
53.883	3.7703	12.099
-5.232	11.043	21.939
53.883	6.922	2.3372
53.883	3.7703	-17.901
-5.1312	11.043	25.466
-26.539	-6.3138	31.713
-30.851	-11.908	-5.7473
54.461	6.922	-17.663
-32.074	10.743	-31.318
54.461	3.7703	-17.901
1.7878	3.5767	31.144
-6.4786	8.3189	-27.699
-25.851	-10.56	-10.449
-9.984	7.4005	-26.444
54.08	-4.478	28.626
-25.851	-10.56	3.551
-32.961	-1.9297	26.388
39.162	6.0896	29.744
42.291	-13.257	-29.216
-33.539	-6.3138	17.025
-32.961	5.022	12.337
-5.2324	3.8748	29.744
-30.609	-7.2566	28.28
-10.703	-3.6025	30.144
-8.6388	-4.5052	-25.383
54.461	-0.029667	12.337
-32.074	-4.478	30.249
-33.539	6.922	21.951
-5.3478	9.2065	-16.718
-11.503	-2.6725	-27.613
-33.539	5.6703	-27.663
-10.555	-10.356	29.744
41.357	-15.257	22.787
-30.851	-10.56	-15.046
-30.851	-7.8837	8.9544
1.5434	5.6506	29.244
-12.012	-2.073	-32.511
-5.3478	9.2065	21.951
0.45392	-0.84243	21.951
-30.851	-10.56	-4.449
3.2548	-2.6194	28.344
-33.158	3.7703	28.626
-25.851	-10.56	-9.0456
52.997	5.022	30.249
-33.539	6.922	2.3372
-33.539	1.222	-27.663
-11.431	6.2457	-24.225
-8.6439	-4.5	-28.813
42.291	-15.257	15.098
-0.68997	4.4931	-25.338
53.883	5.6703	-30.549
-30.851	-7.8837	13.954
24.271	4.4318	29.744
4.1384	11.043	16.06
-30.851	-10.56	2.551
-27.765	-7.2566	-30.705
54.461	8.822	-17.901
-7.1784	10.729	-31.615
-25.851	-10.56	-15.046
-32.074	-6.3138	21.951
-27.644	-13.257	23.851
49.527	10.543	28.44
-32.074	-1.9297	30.249
-33.539	5.022	2.3372
1.1702	11.043	24.968
-2.8486	2.3308	29.744
-5.2181	10.543	14.739
39.999	-15.257	-24.388
-10.45	8.3068	-16.947
-10.703	-7.1306	28.744
-4.3995	11.043	18.106
-8.7485	9.9834	-36.318
41.959	-13.257	23.321
54.461	-1.9297	-17.663
-12.184	0.20364	31.096
-1.6564	6.0078	-23.511
-6.2396	11.043	22.055
-5.1872	4.7051	29.744
-32.961	8.822	-17.901
-3.4811	-3.1498	29.744
30.998	1.6761	-34.318
-4.2127	10.543	18.21
-8.7485	-6.4876	-36.318
-32.961	-0.678	-7.9007
-9.4081	7.7209	-32.511
-30.851	-11.908	-6.7473
33.397	3.975	-34.318
54.461	5.022	-17.663
-33.539	-0.678	21.951
54.461	-5.3727	-29.339
39.967	-15.257	-25.192
40.762	-5.9297	26.512
-9.4081	7.7209	-24.138
52.996	-5.9119	-29.787
52.996	-6.3138	24.958
-6.4986	1.3807	30.944
52.997	-0.678	30.249
9.4922	-4.3334	27.213
0.76137	5.6123	28.744
43.704	2.8416	29.744
53.883	5.6703	2.3372
-25.851	-10.56	5.9544
-32.074	9.2434	-33.916
53.883	5.6703	21.951
-5.6066	2.8416	29.744
-28.539	-6.3138	31.713
-33.158	-5.7297	28.626
-7.5762	2.5145	28.744
53.883	-1.9297	26.388
-12.465	-3.1203	21.951
53.883	8.822	12.337
53.883	-1.9297	-30.549
-0.28512	0.23653	-28.825
-13.539	10.543	23.713
-7.554	-4.4494	-23.125
-9.4066	8.1995	29.744
45.691	5.5849	26.244
-11.902	11.043	17.461
-22.616	-13.257	24.324
-22.616	-15.257	-19.99
52.011	-7.2566	27.938
-32.961	8.822	-17.663
8.6769	0.026203	29.744
-33.539	-5.9119	-29.787
-33.539	6.922	17.025
40.16	-13.257	20.715
53.883	-1.9297	21.951
-9.4598	-3.0963	-33.318
-32.961	3.7703	-17.901
-9.9861	7.4005	-25.39
54.461	-2.2538	-31.287
-13.78	-0.84243	21.951
45.944	4.6393	26.244
52.743	-6.3138	26.528
-2.7966	-4.9488	-36.015
-3.3085	-3.9054	-23.511
-21.481	11.043	15.257
-25.626	-13.257	25.298
53.883	-0.678	-27.663
-11.524	-2.6207	-23.511
-6.134	-4.7877	-25.39
-32.074	-6.3138	-28.287
1.3572	-2.5452	29.744
-9.7566	5.6506	28.744
-14.237	1.7479	-33.318
-9.984	7.4005	-27.644
-33.539	8.7871	-29.787
-30.851	-10.56	8.9544
-0.16216	2.4247	-23.511
-3.1457	1.1778	28.744
-33.539	1.222	-17.901
-18.549	0.58535	29.244
53.883	3.7703	-17.663
-4.3218	11.043	15.387
-2.1291	6.5078	-27.699
-21.033	-15.257	24.066
1.6771	10.543	18.553
53.883	-4.478	-30.217
-17.941	-15.257	-26.763
45.365	-13.257	-29.974
0.89342	4.5248	28.744
45.765	-13.257	24.259
-13.195	2.4877	-32.511
-30.851	-7.8837	-8.0456
-10.923	6.7545	-26.499
-15.684	2.8416	29.744
-5.1879	4.7005	28.744
-32.074	8.7871	-29.787
-13.762	-3.7772	-34.318
-2.8515	7.0844	-25.383
51.996	10.543	5.0506
-0.57046	8.3661	-35.818
-32.074	-5.9119	-29.787
-22.616	-13.257	-19.99
53.883	-5.7297	-17.663
9.4922	-6.3334	26.512
-2.5669	-5.3466	-36.318
-30.851	-10.56	12.551
-33.158	6.922	28.626
-32.961	8.822	26.388
-6.9644	11.043	24.812
53.883	-5.7297	26.388
-33.539	-1.9297	-7.9007
-0.86122	6.6161	-33.318
-30.851	-10.56	-23.046
-26.222	-13.257	-21.527
-25.851	-10.56	13.954
-3.4811	-10.356	29.744
-10.962	6.7081	-33.318
54.461	5.022	21.951
4.2101	-3.171	28.344
-23.608	10.543	18.403
-6.4684	10.543	7.9421
-13.232	2.1747	29.744
-0.28332	0.2294	-27.655
-7.9781	9.2065	-33.318
-33.539	-4.478	26.713
-5.2475	-4.6554	-25.383
-1.703	-5.7566	-33.916
-32.961	-0.029667	-30.549
-10.45	8.3068	-28.871
-6.6465	10.743	-31.327
1.0697	1.7479	-36.015
-4.0334	-6.8547	-32.818
-1.0644	-1.6973	-25.338
-27.515	-15.257	18.324
-5.9201	-7.2169	-35.818
52.623	6.922	29.091
53.883	5.6703	12.099
54.461	6.922	12.337
-24.94	-13.257	23.751
-33.539	-0.029667	2.3372
2.4611	11.043	9.713
-6.4786	8.3189	-23.511
54.461	-0.678	2.3372
47.635	-13.257	15.098
-5.6066	0.026203	29.744
-25.851	-10.56	-6.0456
42.415	5.5849	26.244
53.883	5.022	26.388
-3.5556	-2.7044	28.544
2.2099	0.26729	-35.818
-12.587	-3.2225	-36.015
-15.251	11.043	10.269
44.998	6.2771	29.744
-7.4058	10.713	-35.818
1.8277	10.543	14.816
54.461	7.689	-30.885
53.883	5.6703	-17.663
-25.851	-10.56	8.9544
-13.539	10.543	9.713
4.1384	11.043	23.06
-10.45	8.3068	-33.318
-23.813	-15.257	14.469
-33.158	1.222	28.626
49.638	-13.257	-26.763
-1.1418	2.6452	-33.318
-9.3937	7.7275	-23.125
-25.851	-10.56	-18.449
-5.9887	7.3007	-33.318
-5.232	11.043	7.9394
-8.5435	3.5494	31.244
-14.333	11.043	11.328
-12.755	8.3661	-35.818
-32.961	5.6703	-17.663
-0.21222	3.7976	31.096
54.08	3.7703	28.626
-0.98335	2.2351	31.044
-30.851	-7.8837	-22.046
5.9708	10.743	-16.228
-30.851	-10.56	6.9544
-30.851	-13.257	-15.747
-7.2798	11.043	16.255
1.0285	5.9103	-36.251
52.997	-6.3138	30.249
0.43577	-3.7772	-35.818
-10.968	-3.2201	-23.125
-1.6865	6.0174	-24.19
-8.8696	10.46	-32.571
-5.3478	-5.7106	21.951
-20.293	-15.257	-20.563
9.4922	-4.3334	26.512
-32.961	6.922	-30.48
54.461	9.189	-28.287
-9.9508	6.2732	-33.318
48.157	-13.257	25.298
-12.238	2.198	-33.318
2.6129	6.0896	29.744
-18.752	1.343	29.744
-1.9031	-2.786	-26.499
-30.851	-13.257	-0.74727
-32.961	8.822	-27.663
40.288	-15.257	-26.763
53.883	5.022	12.337
-6.663	7.3415	-8.118
-0.13658	1.1138	-26.447
2.4611	10.543	16.713
-0.18793	4.7005	28.744
-30.851	-13.257	-14.747
14.352	6.0896	29.744
-0.70649	6.4255	-28.412
50.89	6.922	30.852
53.883	3.7703	12.337
-1.0146	1.4366	28.744
-18.95	-1.7128	30.144
-33.539	5.6703	26.713
-12.365	4.9827	-27.644
-32.961	5.6703	26.388
-4.2481	11.043	24.968
-25.932	-13.257	-28.733
-6.663	1.7479	21.951
-29.968	5.022	30.852
-25.851	-10.56	6.9544
-13.12	2.3754	31.096
-12.525	-5.0756	-34.204
-13.762	7.2731	-34.318
-27.134	-15.257	21.467
-32.074	-0.029667	30.249
54.461	5.6703	-7.9007
-5.9887	-3.8049	-33.318
53.883	6.922	-17.901
-11.871	5.7594	-32.511
-30.851	-11.908	-7.7473
39.999	-13.257	-24.388
-30.769	10.543	26.275
1.7604	11.043	8.055
47.996	10.743	29.744
-3.0503	9.9841	-33.31
-5.1164	8.137	-32.511
-1.434	-2.1734	-32.511
-4.3995	11.043	11.106
-33.539	5.022	-30.549
43.959	-7.2566	27.213
1.035	4.5497	-36.318
-5.232	11.043	14.939
52.623	3.7703	29.091
-25.851	-10.56	-1.0456
-11.453	6.1943	-32.511
-0.68997	4.4931	-28.738
-7.2798	11.043	9.2554
50.89	1.222	30.852
14.352	2.8416	29.744
1.8222	2.8416	29.744
4.3821	10.543	9.1566
-30.851	-11.908	-22.747
-17.717	-15.257	18.324
1.8325	1.7479	-36.318
-12.365	4.9827	-26.444
43.959	-0.33337	27.213
-29.902	10.543	27.572
-32.961	-5.7297	12.099
52.623	5.022	29.091
-11.414	0.67613	28.744
-19.944	-15.257	15.098
-6.1357	-4.7887	-26.455
-26.539	-7.2566	29.744
-8.3915	7.0678	-8.118
52.623	1.222	29.091
-30.851	-13.257	-12.747
51.374	9.189	31.332
-9.4648	-5.9501	-36.318
54.461	3.7703	-7.9007
-7.428	8.2768	-32.511
-1.0644	-1.6973	-26.499
-3.0009	3.7976	31.096
-33.539	-0.678	-7.9007
0.75099	-2.1952	29.744
-9.6066	7.6256	-33.318
-30.851	-7.8837	15.954
53.883	-1.9297	-17.663
-5.8982	-2.7044	28.544
2.9397	10.543	11.655
-31.701	5.022	29.091
-33.539	-0.029667	12.337
-2.7289	2.4264	28.744
2.8688	11.043	11.466
-1.4525	-2.2341	-26.455
-1.3572	3.5192	-33.318
48.836	-13.257	16.162
-0.73939	6.7184	-36.015
-13.369	7.7434	-34.318
-8.5182	8.0543	-23.511
53.883	-3.3182	-30.549
-5.6066	-10.356	29.744
-11.902	11.043	10.461
-21.566	11.043	18.227
-24.2	-13.257	-20.248
-15.158	1.7479	-36.318
-32.961	-0.678	-17.663
54.461	9.189	-17.782
-26.539	-11.314	24.737
-30.851	-13.257	1.2527
-15.499	10.543	17.113
-2.1066	1.5248	29.744
43.107	3.0014	26.244
-1.9031	-2.786	-27.699
54.461	3.7703	2.3372
-23.315	-11.314	26.204
-1.3431	3.4764	-8.118
-32.074	10.341	-32.818
54.461	1.222	-17.901
-4.0296	5.8459	31.096
2.6129	-0.5233	29.744
-3.026	4.7051	29.744
-3.8616	11.043	23.06
-10.451	-6.4112	-33.405
-12.362	4.9846	-24.213
-33.539	5.6703	12.337
40.446	-13.257	21.467
-25.851	-10.56	4.551
-32.961	8.822	-28.361
-33.539	5.022	17.025
52.623	-4.478	29.091
51.374	5.022	31.332
-26.489	-13.257	-28.153
-30.851	-11.908	-19.747
-10.45	-4.811	21.951
-11.62	9.2331	-33.897
-17.237	1.343	29.244
-12.632	-0.96796	-25.383
30.075	8.1995	29.744
-32.074	9.189	24.744
-11.446	9.0693	-36.251
0.40099	-3.5014	29.744
-33.539	-1.9297	12.337
-15.684	-10.356	29.744
-18.099	-13.257	21.467
-10.968	6.7159	21.951
36.162	4.4111	29.744
50.175	-7.2566	23.851
-5.5389	11.043	9.713
-30.452	-0.029667	31.332
49.48	-13.257	-22.847
3.0944	10.543	7.8159
54.461	-2.2538	2.2183
-5.1067	-3.6249	-33.318
9.4922	-11.314	26.512
-18.286	-13.257	-27.49
-25.851	-10.56	7.9544
-32.961	-5.7297	12.337
-15.251	11.043	17.269
-24.303	11.043	17.07
-4.0625	3.4301	28.744
-33.539	3.7703	2.3372
-25.851	-7.8837	-3.449
53.652	-0.029667	27.407
-11.188	5.0358	-33.318
52.996	10.341	-32.818
54.461	5.6703	-27.663
-12.988	3.5378	-33.318
53.883	3.7703	-27.663
-37.076	-10.795	6.5676
38.68	-11.259	21.647
-26.955	-0.29735	-29.696
23.271	-0.076446	29.861
13.435	4.5094	13.988
-56.585	20.955	-7.7538
62.777	-2.1813	-12.517
79.309	0.87143	-12.645
15.398	13.72	26.449
-64.589	-8.4261	-4.1409
28.721	-2.9946	-24.017
-19.137	-16.339	-11.242
23.725	11.753	-21.083
-30.916	-16.379	25.033
60.639	-9.0794	9.1798
-3.3813	-16.376	-11.188
-38.461	-1.4516	22.531
-39.236	-12.409	-2.1502
82.373	-1.4805	-10.311
2.2778	12.933	26.847
-23.598	-5.1928	12.294
-10.546	-13.624	-14.371
-23.275	-11.193	-27.562
-14.391	-22.271	19.988
-42.312	-1.2655	12.518
14.577	-3.3722	29.684
-3.5228	27.282	11.733
-27.729	-10.549	6.9561
-37.722	8.2756	-9.1592
81.619	7.1618	10.567
-29.476	2.8637	29.711
-26.914	-1.2298	29.841
13.53	-0.080286	-14.187
-12.73	-7.5342	28.924
23.287	15.199	-25.452
42.15	13.79	-19.804
-4.6332	18.752	23.116
37.236	-10.922	-21.652
-64.589	12.292	-3.7301
-48.225	-1.9983	-9.3221
12.949	-7.8791	18.277
42.392	2.8836	-12.354
-33.878	-3.0494	22.379
42.392	15.821	-3.4828
6.0179	23.052	-18.617
32.392	5.6689	-0.086968
82.373	5.8798	-6.1033
-64.565	11.466	7.1554
12.681	-19.898	0.44209
-16.172	-29.726	3.3063
36.805	1.9181	24.267
-29.183	27.595	-10.803
-64.589	-2.2806	6.3972
28.626	-0.69813	14.341
71.608	2.1622	1.6422
-8.0059	19.56	-22.264
32.004	-4.5546	23.945
-4.0203	-13.235	-14.725
26.108	-4.8406	23.89
6.5902	11.384	27.548
-11.786	6.9843	-28.836
23.435	-11.553	26.672
-0.62015	14.803	-25.686
37.822	-14.714	19.476
-30.51	1.7194	12.434
25.403	-10.385	-9.8327
-23.598	8.6046	-14.41
5.1737	6.2828	29.164
-5.0364	-22.567	19.654
15.146	29.654	-0.28064
29.134	23.907	-3.3259
-24.491	7.546	28.857
22.429	-7.1844	-12.318
1.0322	-16.53	11.128
42.392	21.221	9.162
10.134	23.468	18.255
21.969	29.486	-3.1001
-24.771	-22.376	19.871
62.799	3.1728	-12.251
-4.3764	11.852	-15.66
-33.941	-22.291	3.8605
-33.598	5.2646	-27.198
32.392	9.3709	-4.5893
76.054	12.455	2.2716
-58.225	-8.5465	-16.285
-33.598	-24.084	-11.824
-38.996	-13.889	17.864
27.044	-14.387	0.4836
42.94	-0.039516	12.849
-30.797	-21.385	-20.766
-15.789	-5.4223	-18.973
-52.583	-2.3952	-2.6791
67.464	-10.164	-7.801
-2.7273	0.55491	29.854
77.463	4.7057	11.901
-8.0553	-24.708	16.885
11.158	-13.769	26.55
-34.836	-13.53	-17.971
8.6974	2.3259	-29.595
42.332	-12.754	-20.641
-33.598	-27.935	-6.5938
42.392	-3.1279	19.054
82.373	10.651	6.057
20.374	-29.128	6.8262
59.494	7.3023	-10.302
-48.654	-22.595	-0.75654
23.435	25.76	9.9119
-1.4802	-24.235	-17.392
-64.589	-8.9045	10.409
-13.433	-15.993	11.886
-16.393	14.793	13.072
13.435	-19.081	5.2881
27.669	13.988	2.2082
-33.598	-17.798	15.114
-3.4784	-26.339	-14.041
-11.912	17.542	24.057
-9.9231	-11.347	-27.5
2.5506	15.625	12.05
31.671	22.969	-7.3869
-24.019	-15.663	-25.32
11.541	5.9555	-29.069
-39.346	10.894	-5.7977
40.994	24.049	-2.1018
-19.273	-13.082	26.893
-33.598	28.639	2.1053
-55.263	0.17189	22.568
-58.225	0.68115	18.867
-29.886	5.7543	-29.11
10.529	-29.894	0.75247
-33.902	-22.1	-4.6797
53.419	6.7715	-10.662
19.085	-10.225	28.095
-44.851	-12.204	-18.884
5.4588	-0.31108	-29.696
-48.336	-1.9277	-3.0049
42.392	20.131	2.1929
-58.712	-8.4483	-10.641
35.312	21.871	10.346
-9.3822	19.483	-2.5294
82.373	2.3139	2.6585
53.784	11.799	-4.4834
-40.154	2.8585	22.372
35.619	6.2234	-23.343
47.687	11.683	4.9411
20.404	18.032	-23.522
-58.225	5.0548	-16.414
-5.6716	-17.388	24.346
-14.439	-12.84	27.009
