ply
format ascii 1.0
comment VCGLIB generated
element vertex 1846
property float x
property float y
property float z
element face 0
property list uchar int vertex_indices
end_header
26.39926 23 4.265966 
24.60768 23 8.299639 
32.95665 17.14437 0 
37.5 21.00601 9.748466 
6.357238 1.565078 11.31988 
30.84892 15.07825 0 
36.8052 12.22042 8.340691 
41.28038 8.263094 13.93773 
49.10864 0.5367056 9.604693 
16.32743 2.991247 6.990009 
59.99984 8.023561 7.497428 
3.996214 9.333132 9.417431 
54.57221 9.507441 10.91219 
8.869617 1.696566e-13 13.81011 
2.260568 0.569518 15 
52.20803 11.75848 11.47643 
6.262458 5.27482e-14 2.745638 
10.43561 1.188896 4.799519 
48.50064 4.938034e-14 10.40121 
3.559177 4.938034e-14 14.09208 
32.2435 13.79745 12.98322 
42.06215 8.835996 15 
0 6.692943 11.25793 
44.99194 3.943595 0 
60 3.302282 5.475606 
55.91058 16.60629 5.422467 
0.02376381 8.242619 7.79599 
44.46416 3.009413 0 
56.43103 9.35448 6.76983 
0.09664249 8.255998 6.328361 
37.22255 22.94581 12.58387 
28.62512 15.38569 15 
60 3.489146 5.395911 
6.527424 12.90194 3.624255 
43.9177 1.255664 9.225749 
52.22738 5.90521 11.47482 
43.70774 2.694536 10.41589 
2.217242 14.05258 12.81404 
48.76666 1.356427 8.925406 
45.90634 14.00805 0 
10.17542 6.568251 10.46603 
54.01092 15.88468 14.82729 
24.26981 12.75056 0.7509372 
56.1938 14.43524 9.010053 
48.46542 4.619632 15 
3.84271 13.83953 1.027159 
0.6974468 17.98759 5.468959 
13.86432 4.938034e-14 11.85098 
44.12892 14.56683 0 
46.70412 10.41994 0 
10.16806 18 2.880813 
5.494783 18 2.985472 
0.1178352 10.10488 8.802377 
55.28632 0.2172926 4.650862 
9.788802 7.27237 1.135107 
12.19682 12.59111 0.4616417 
43.90595 1.434834 1.789809 
48.54285 4.938034e-14 6.941711 
55.21345 17.67825 14.45357 
21.644 11.21831 10.25276 
20.21692 12.58911 0 
25.8016 13.3278 8.277632 
40.28173 18 10.61477 
15.34859 2.333966e-14 8.645271 
0.1551531 16.03143 6.023608 
51.58693 8.043957 11.3835 
4.735395 2.363061 10.37348 
40.62156 18 14.25491 
59.56859 15.33636 9.987462 
30.14438 22.85254 14.85187 
10.44089 9.442415 13.9722 
43.9237 1.164028 3.144396 
54.62926 16.27193 4.114139 
36.75939 17.80549 0 
37.5 20.46248 6.548055 
25.65953 23 3.928379 
50.3136 9.148466 10.84021 
26.89738 21.32632 15 
2.814034 8.80888 1.673271 
37.29636 11.92634 0.3768629 
49.55198 12.74072 15 
48.53212 0.5307831 7.129101 
20.57833 18.07833 7.656602 
48.79354 9.473951 0 
47.76228 3.000438 0 
0.0003149046 7.630376 9.081699 
43.89909 1.539511 4.629359 
31.67192 18.5423 0 
25.89474 23 4.206857 
7.681096 0.5474033 3.515368 
7.460505 15.27724 3.511323 
47.34657 18 8.111524 
40.26458 17.81815 14.8853 
0.5296128 10.10048 4.738158 
7.693346 3.228374 0.8942448 
29.14112 23 12.72502 
60 6.114073 14.29685 
10.59773 8.828371 10.02 
48.93058 2.287338 9.27883 
7.496632 12.96284 13.87965 
44.22398 12.96234 0 
58.96713 4.938034e-14 1.858733 
2.7475 0.2729389 15 
30.48192 23 12.68899 
46.3992 4.938034e-14 13.94689 
37.49999 20.54012 12.07089 
7.434794 15.73509 13.96265 
7.24524 11.75422 11.47943 
17.53201 6.308632 3.562566 
42.98811 5.199069 6.629042 
57.45646 4.938034e-14 1.514586 
0.3692384 7.98063 12.41081 
0.1971594 10.3025 5.881446 
18.7429 8.297938 3.060708 
0 3.674319 10.30935 
56.01101 1.467117 5.601369 
50.67186 18 2.511694 
44.99589 16.15177 15 
0.05599734 7.931424 6.330556 
30.94219 23 2.629911 
37.81725 17.9902 15 
15.49402 18 10.81958 
45.49304 18 7.783057 
25.19175 23 7.75308 
51.43274 2.587149 0 
29.79387 20.87382 15 
4.861375 5.62368 10.49945 
57.90979 18 9.566909 
27.7839 23 10.62232 
6.006884 14.34318 1.140898 
37.5389 11.76427 7.078977 
26.40562 21.88492 0 
58.6379 11.10641 3.227863 
46.66906 13.83091 15 
3.450859 17.89931 8.604516 
56.38424 8.70624 6.58497 
54.2857 6.240743 3.930869 
26.36843 13.52021 8.033872 
11.72732 14.54368 14.64961 
1.550297 18 9.813049 
6.085361 8.444853 0.9966625 
34.61075 13.18782 11.98108 
59.74315 10.70049 5.647121 
11.70823 17.26541 0 
37.5 21.64248 4.102843 
28.4382 20.43436 15 
50.70711 16.56428 15 
43.32655 4.202072 14.86847 
2.818583 15.62551 1.646703 
34.06973 13.37148 5.193635 
1.91364 14.8112 2.518435 
43.84872 1.985713 7.945476 
37.5 21.88397 3.08511 
59.84127 7.057536 0.1368544 
34.78194 13.34995 0 
22.5 20.80296 12.66935 
9.487328 4.938034e-14 13.00582 
41.87332 7.654415 15 
60 3.09488 5.194856 
16.53262 11.54714 15 
6.002547 15.12205 3.794923 
27.56415 13.75919 12.47009 
51.35509 16.13361 11.32448 
26.62967 18.68336 0 
10.95412 6.364155 5.485543 
2.246596 8.773464 2.165696 
5.861002 7.439176 0.9118089 
16.22004 2.419271 3.188041 
54.38485 6.926164 3.979812 
47.68653 0.713181 15 
9.216627 8.462767 3.89684 
43.96218 0.5769454 3.299822 
3.507334 0.3101227 7.586468 
59.78978 0.1262042 0.09484212 
0.7761208 10.38576 10.78645 
14.11398 4.938034e-14 13.36419 
60 7.273487 0.6365874 
10.96964 16.07138 5.511662 
4.618933 12.30633 4.742232 
0 2.343441 1.18014 
35.5677 13.59725 15 
55.16262 4.187992 4.52461 
53.14232 17.99733 11.91762 
38.77101 10.88915 12.02677 
0 4.986239 8.842201 
2.937886 13.73158 1.559108 
26.50941 13.54939 1.216394 
1.519333 14.19648 12.01533 
49.34759 13.22023 15 
44.00969 4.938034e-14 2.513388 
28.89128 14.41454 0 
47.37464 4.938034e-14 10.67038 
0.9511887 4.938034e-14 12.72085 
8.279207 1.296997 0.8416224 
19.02187 16.78366 0 
7.564353 11.27529 13.86054 
33.99309 23 10.85 
6.893628 -1.632201e-09 1.056433 
52.74881 1.996327 11.47873 
53.3782 12.66928 11.39102 
15.03494 16.63214 15 
20.96734 18.46734 8.203358 
30.95592 20.08786 15 
56.03648 8.813483 5.652523 
10.64967 4.893302 1.138014 
25.28901 23 0.5005456 
8.098375 11.75043 13.88101 
18.26062 7.576163 6.469022 
0.108573 15.76642 6.257272 
44.41856 5.481685 0 
46.18544 17.97614 0.3524705 
0 2.511029 5.715628 
59.88696 3.107885 0.1842331 
4.499349 5.433487e-14 1.513239 
50.03777 6.521439 0 
49.98284 16.27472 10.59768 
2.747191 17.81316 13.14091 
11.02404 13.13124 0.6764466 
46.0384 16.7304 15 
21.41623 13.63974 0 
37.59338 16.07996 15 
9.790504 9.862382 13.92888 
59.99491 10.56519 7.620905 
3.583452 17.67783 1.144217 
0.1834796 8.762659 9.057749 
28.70285 23 7.020816 
1.52282 7.582904 0.006960171 
39.26763 15.75386 0 
27.03179 23 10.83409 
48.54694 4.310152 8.073186 
47.45416 4.938034e-14 2.238875 
60 5.853297 6.508615 
16.19829 18 13.09359 
34.48929 23 5.756835 
49.30758 8.969955 5.115496 
44.79285 18 10.26549 
54.86934 14.83 4.291809 
20.88983 10.59171 5.370478 
50.74596 4.938034e-14 14.87555 
11.42012 10.48535 14.16804 
0.05515948 16.35925 8.294428 
0 1.316217 11.19112 
11.32741 4.938034e-14 12.14213 
11.03059 4.082127 1.138286 
60 5.542193 5.989119 
52.95773 11.51098 14.97441 
29.77009 23 12.89862 
56.49143 16.76643 7.481266 
46.03016 8.562981 15 
40.95547 8.695389 5.357053 
38.4213 19.0787 12.71845 
53.6438 16.01632 14.90342 
49.0202 17.19653 5.533092 
10.5336 16.11141 4.902286 
37.5 22.33844 3.00701 
7.833385 2.11649e-13 13.15053 
41.88269 7.361678 6.415279 
12.23651 18 10.06533 
21.88761 19.38761 11.73388 
56.49124 13.52309 7.530636 
15.91058 18 8.988249 
35.2948 12.95562 13.67093 
13.75079 3.169554 0.9840394 
60 4.394386 7.130216 
59.99713 9.840914 7.457052 
2.077859 18 4.295694 
0 0.1734962 14.31558 
14.29845 2.354393 14.04119 
38.61583 18.88416 1.141606 
53.42714 12.34875 11.37903 
49.61691 0.4097271 0 
20.34048 10.10995 3.260538 
53.81306 0.3587079 0 
31.7037 23 6.910906 
13.35502 10.44137 14.5794 
30.34521 13.97737 7.598208 
56.30598 6.954887 6.300583 
54.71524 16.51645 10.81713 
0.2571124 4.938034e-14 3.167862 
4.672237 1.390685 10.30919 
52.94219 4.938034e-14 0.6896287 
43.40526 18 8.637339 
4.09613 16.87845 1.137265 
39.05402 10.64096 4.420777 
15.2775 5.544063 14.49627 
26.48649 23 9.699617 
58.13826 17.83114 2.754369 
52.24494 14.09755 3.510449 
5.112792 4.381809 10.69694 
4.182055 7.819261 14.35655 
0.552487 14.41101 10.30022 
14.24647 10.72696 14.87182 
55.1722 1.97333 4.535613 
11.77005 17.19046 15 
37.49999 21.93702 7.056147 
57.52583 2.817429 15 
51.89368 4.396002 11.44597 
14.48894 10.56407 0.07595727 
5.998764 16.47098 3.797123 
49.96037 1.971511 15 
30.53662 23 9.29408 
23.96054 15.25532 15 
42.67978 5.873714 10.62241 
43.22882 7.520889 15 
49.32526 4.938034e-14 10.57015 
37.5 20.04199 1.531858 
46.00943 5.754966 0 
0.06056042 7.73752 3.776763 
55.56434 4.938034e-14 11.26231 
9.213992 4.938034e-14 12.39848 
56.39705 7.297797 8.375221 
35.19791 19.87441 15 
27.55784 23 8.757533 
49.14346 2.878991 0 
14.06819 0.8235583 1.061221 
56.3981 11.35171 1.102234 
51.49039 18 13.63048 
30.96214 18.42869 15 
13.62642 18 3.457406 
33.6525 23 14.27485 
31.64964 13.89188 1.708636 
3.696617 16.02284 13.90322 
45.91274 6.729209 15 
42.42193 13.93289 15 
16.73838 4.480323 10.96218 
1.96954 13.85004 2.456584 
2.771236 18 6.995537 
31.51338 13.90081 3.330775 
6.148364 2.714127 11.26445 
31.73911 13.88601 3.493273 
54.69099 5.503397 4.165482 
4.144548 15.89533 9.664627 
56.91282 4.810992 15 
17.29303 5.827807 14.74987 
37.5 20.09303 11.9488 
3.512628 11.46977 7.274383 
51.7556 6.792198 3.573822 
26.73392 13.59405 7.224634 
60 4.666071 1.95444 
56.45249 9.364955 1.141791 
48.28659 17.987 6.307774 
55.31963 10.21668 4.677762 
25.45956 20.84675 0 
26.25814 13.48277 6.388163 
54.62959 17.9917 14.24764 
58.45452 3.938014 0 
57.39462 4.938034e-14 5.210285 
39.80408 9.983168 4.119043 
6.380813 12.70448 1.136557 
14.86606 -4.514564e-15 3.100687 
39.33646 18.16355 2.244702 
3.25425 0.9278888 0 
47.36424 0.9109792 0 
43.83408 2.059383 2.124514 
57.32623 2.046403 0 
33.95697 13.40975 3.843017 
21.88819 13.15783 15 
37.26866 22.91994 6.295162 
31.80296 13.88183 12.71592 
4.246891 0.5354491 0 
48.83712 18 2.426558 
48.49251 9.480725 15 
43.1432 4.742221 6.93674 
5.029997 7.845428 14.19262 
15.85184 15.39753 0 
20.99925 18.49925 12.50567 
50.89226 9.896864 15 
49.52062 18 12.08732 
60 4.820432 8.299783 
37.5 21.11236 1.600148 
48.29913 18 10.90142 
34.37389 23 1.16353 
28.08481 13.86276 8.747272 
56.20454 1.414008 6.016391 
40.4173 18 1.283182 
22.7975 11.98905 8.456923 
42.83911 7.62758 0 
41.85329 8.225414 15 
27.29076 23 2.599667 
36.57507 12.33391 13.26984 
43.01039 5.133448 13.65177 
0.3334444 12.05845 5.326049 
19.42776 18 8.445253 
18.18279 7.459674 1.716928 
50.30219 13.51694 0 
11.00623 6.075918 9.418021 
10.65565 18 1.457304 
9.50024 10.52873 4.042634 
57.11034 17.50912 1.600471 
3.327278 15.38373 1.276882 
8.708428 5.911602 1.11887 
9.456256 5.080909 4.01613 
58.42654 11.80738 2.926139 
0.05846427 10.25291 8.278223 
50.16599 17.9959 14.5469 
10.15576 7.652492 4.515529 
0.3174376 12.85209 9.614851 
19.46896 18 2.256072 
9.530851 9.623755e-14 11.51352 
3.680099 0.8220829 6.358623 
22.10469 17.20262 15 
10.16387 14.54617 4.519226 
52.28741 2.457909 3.516466 
45.55649 8.332509 0 
35.85031 23 7.197926 
16.5031 3.705566 13.51931 
49.8299 14.40044 10.46385 
36.32207 23 4.567932 
59.15969 17.99862 5.299929 
46.69209 13.96486 0 
0.1962423 15.06274 5.862306 
53.00341 5.961278 11.45743 
22.5 20.74832 7.734229 
56.02389 7.23147 9.385722 
58.34181 4.938034e-14 10.10423 
58.86592 14.75231 3.539593 
57.04963 9.551762 1.559251 
49.74083 6.75109 15 
43.90162 1.50089 2.133936 
29.78323 16.32133 15 
32.23434 23 7.758073 
46.78762 11.3147 0 
8.216619 6.946822 3.56942 
35.13615 14.96283 0 
40.84774 8.818229 13.49974 
32.3532 13.77563 6.392498 
49.45491 3.882027 10.0901 
47.0686 1.933968 0 
51.79628 10.55411 15 
19.5658 15.02106 0 
16.73026 18 10.83323 
10.97987 9.037099 9.459282 
26.71681 13.59065 8.913699 
2.236555 16.34811 12.84184 
9.137145 3.063625 11.13539 
19.23947 14.56344 15 
3.903195 4.578811 14.79322 
48.62659 4.938034e-14 8.7302 
0.6041766 3.648969 0 
18.41283 7.803964 6.991704 
50.55879 14.80676 15 
27.69165 13.78455 2.574715 
50.47198 4.938034e-14 1.676192 
37.2033 22.95479 5.994983 
3.578879 16.53321 6.712713 
2.77515 4.938034e-14 12.6886 
23.06537 12.1566 5.687143 
38.51834 18.679 0.09218717 
39.22868 17.58218 14.99889 
37.57992 16.32917 0 
58.56485 18 10.2119 
55.21102 12.7211 14.48914 
9.308765 12.89045 11.06206 
8.916584 7.140616 13.86466 
30.2029 18.44726 15 
51.19165 10.56133 3.728622 
22.21867 19.71866 0.6538864 
26.30871 13.49994 10.7213 
59.94925 10.79249 6.831224 
44.83982 2.24211 15 
51.00203 1.976241 11.19955 
44.32461 6.922114 15 
26.92119 21.73937 0 
18.33394 7.685886 2.779262 
16.69979 4.359032 0.7229545 
49.86581 6.487803 4.494705 
15.37192 5.881314 14.5607 
28.75219 17.97238 15 
9.332596 17.62763 11.0731 
7.695475 0.8050208 0.6982141 
52.73958 4.938034e-14 0.6317354 
46.2092 16.69995 0 
54.12478 6.64539 11.14359 
57.80899 17.92799 12.42699 
18.09022 15.54403 0 
8.299397 10.73615 13.86885 
3.513696 14.53999 7.639172 
17.00717 18 7.027307 
9.809031 13.62711 0.8549883 
1.688328 4.938034e-14 10.01027 
27.24159 13.69503 12.69299 
5.85999 5.044649 11.1354 
16.96249 5.080777 4.970389 
7.054904 0.7110174 3.538323 
11.04479 9.571084 0.9494339 
28.10476 19.71504 0 
3.39831 4.938034e-14 10.58423 
24.45388 18.83698 0 
58.63165 6.004205 0 
53.80305 12.89506 0.1235275 
6.845015 15.06519 13.89452 
43.82069 6.09309 15 
4.614227 6.0549 4.746567 
29.83604 23 8.797728 
60 4.685592 10.46218 
26.39569 20.40977 15 
8.998201 9.193074 13.86763 
9.446746 11.39328 4.0151 
56.10098 13.1739 14.06141 
57.95987 16.01231 2.378931 
37.80387 11.58722 12.41725 
4.810376 18 2.67969 
11.89616 0.7272909 13.85606 
12.40024 14.12938 0.2137198 
1.678222 6.001237 15 
10.72494 3.653178 9.84706 
13.4647 5.441837 14.12746 
48.52908 1.62488 7.846211 
54.79758 7.167987 15 
59.99299 4.320049 14.58012 
18.70943 17.11875 15 
17.60969 13.08843 0 
17.58669 6.418638 12.06691 
43.56099 3.432279 8.173523 
47.90926 17.50608 14.99947 
20.75418 14.71117 0 
50.24995 4.938034e-14 13.83208 
3.505112 4.938034e-14 11.5327 
22.03087 16.08923 15 
12.82953 13.33506 0.1947092 
5.780917 9.168425 3.897408 
18.88423 9.859556 0 
0.05812213 8.38949 8.217764 
48.63096 16.0202 6.52567 
59.12906 14.68309 4.051855 
37.5 22.21535 9.889449 
20.70546 10.43003 7.934929 
17.4893 6.222692 7.757793 
9.858414 2.573876 10.71546 
6.131881 11.75069 3.749404 
5.787013 4.804647 14.31163 
12.71449 4.938034e-14 10.31192 
0.2976505 9.436966 5.483331 
48.49096 13.40043 15 
16.60672 4.066499 13.99585 
22.5 20.86056 13.80341 
17.73458 18 13.53818 
28.62774 14.17101 15 
56.45526 5.312596 8.056524 
35.19523 22.99303 14.57973 
35.28024 12.96056 2.104258 
49.84175 2.779042 4.521145 
6.455384 15.46057 11.34935 
3.50699 15.05988 7.313394 
32.13273 23 13.81943 
43.89249 1.640234 12.6644 
18.94601 16.67098 15 
42.18573 6.875531 14.41438 
40.71202 10.57964 15 
53.97273 14.54781 11.20767 
53.96095 18 1.896543 
36.72009 12.26239 2.035764 
34.69723 22.86675 14.83766 
35.79498 12.71861 10.30846 
43.92028 1.216277 1.563085 
40.73243 10.24528 15 
28.00994 23 8.198141 
53.3183 16.65442 3.593031 
8.458447 14.43006 3.619167 
9.251911 6.320356 11.08409 
46.29267 13.15231 15 
3.042067 4.938034e-14 4.027632 
22.5 21.09272 4.237558 
7.676632 4.879771 11.48574 
39.48962 10.25894 2.258833 
40.33705 17.53076 14.99731 
51.13762 1.585326 0 
59.208 4.938034e-14 4.055606 
40.46768 9.251601 8.500233 
12.17002 5.723319 1.026667 
2.94292 12.34402 13.44018 
47.62865 2.018677 0 
39.5254 10.22757 7.844828 
9.016436 1.752911 14.02271 
8.565661 3.254351 1.006559 
23.71688 23 10.10816 
28.65946 23 4.152938 
40.92197 18 0.5274656 
32.06212 13.83353 7.957546 
9.276361 18 2.531062 
60 0.9683648 12.51998 
9.050817 6.242438 11.17781 
53.37222 3.99679 15 
34.27809 21.59799 0 
48.85394 11.08926 5.883741 
47.39627 18 3.652812 
27.32964 20.28499 15 
39.23713 10.48037 3.932215 
51.07578 14.96598 11.22815 
15.4186 4.760538e-15 5.523754 
42.59171 18 5.575885 
24.086 12.65991 4.324561 
56.46425 8.578727 13.84721 
2.240232 8.69352 12.82596 
33.73626 22.71747 0.05181921 
49.51096 13.87192 4.855153 
9.732513 16.10196 14.34426 
52.7325 17.84287 0.1530797 
6.356283 -2.425636e-10 2.335003 
16.52121 8.162907 0 
56.24004 14.53539 8.887943 
22.09244 16.08192 0 
5.348486 0.02109197 4.141974 
32.74741 13.69722 4.816046 
4.89364 18 13.62181 
4.15717 15.90418 5.324306 
5.970178 5.646689 0.7903811 
57.8957 2.20778 0 
14.7351 14.58716 0 
20.87919 11.23508 15 
60 4.41937 2.806278 
22.61801 11.86912 8.978132 
59.71857 17.25879 5.517212 
10.15678 4.843851 4.518352 
25.92832 13.37082 2.232989 
25.73343 13.30466 4.324176 
31.56258 19.05125 15 
53.43548 4.443223 3.621528 
48.71939 6.404848 6.212519 
3.870018 8.797548 5.850589 
22.56299 14.4057 15 
14.46845 9.972671 0.1682208 
17.82249 18 4.180112 
56.48804 8.307367 7.682192 
14.10972 4.938034e-14 1.866727 
45.6524 18 3.110586 
6.129557 5.116922 0.7743619 
1.316029 11.87829 3.281491 
54.7684 7.191324 0 
16.91128 4.947057 12.96077 
5.655973 5.804532e-14 1.397253 
56.87096 10.31726 1.43145 
48.95184 17.73854 0.06164576 
2.579937 4.938034e-14 4.799448 
31.12437 22.98454 0.3838181 
27.91573 13.82913 8.091825 
20.97068 18.47068 10.05262 
45.53679 4.938034e-14 9.790247 
4.234889 4.872056 9.791532 
40.49561 12.7544 0 
40.04813 18 1.077923 
20.86445 18.36445 1.170723 
54.17943 7.914094 0.1924972 
13.13176 4.938034e-14 13.62345 
28.59654 23 10.20318 
55.97265 6.124956 15 
1.206258 13.0046 3.446073 
7.957514 3.679294 11.46088 
23.66364 18.05692 15 
16.2114 2.353856 3.963814 
50.31154 5.87278 15 
40.50012 11.29985 15 
56.26223 1.855837 8.855162 
54.15997 15.32663 0.2050636 
0.592937 10.72799 10.39246 
1.590422 18 4.836321 
47.80876 15.3764 0 
37.58742 17.62931 0 
51.33187 6.766273 3.681885 
15.19542 18 2.384955 
15.51609 18 13.51116 
11.6164 18 13.69563 
16.04327 1.056892 9.900491 
43.74393 17.868 0.1635802 
8.987621 7.903965 3.79051 
50.59816 3.923991 0 
12.44869 11.4264 14.4754 
22.5 22.39452 14.31036 
17.56896 6.382963 11.3768 
60 0.5869918 11.0445 
33.77744 13.47069 9.45812 
37.5 22.40075 10.66317 
26.73093 23 9.701278 
16.56887 3.947544 10.90456 
13.53096 12.31696 0.1231876 
0 5.364458 2.653414 
26.87589 13.90041 15 
19.40539 14.04632 0 
50.00562 16.01757 4.38638 
56.81536 13.55556 1.381124 
56.97357 9.391829 1.506557 
59.30206 17.24249 10.65434 
13.375 18 9.1515 
18.13853 16.92958 0 
9.805809 4.938034e-14 2.7143 
58.94619 17.92303 10.82345 
19.6725 18 8.068826 
39.37034 17.19047 15 
13.95529 16.71085 0 
9.994491 10.7051 10.62267 
5.767861 4.938034e-14 12.79628 
6.053019 17.93612 3.510004 
23.14482 21.7402 15 
56.10605 0.1491932 5.804486 
44.98208 4.938034e-14 8.953267 
42.48738 6.263848 6.568822 
41.61388 15.3125 0 
0.02806906 2.104747 0.3367655 
26.87738 23 6.736238 
48.69178 18 2.036187 
52.97999 18 1.377765 
0.147717 7.852134 12.43521 
3.732746 11.56364 6.170616 
24.14646 12.68973 7.853122 
49.91145 12.97997 15 
32.06863 13.83224 6.640215 
49.67926 2.15443 10.31709 
13.02311 12.10408 14.69736 
35.45688 13.70783 0 
31.40253 13.90807 11.3725 
49.11954 7.172019 15 
50.85629 10.95153 11.13644 
4.310086 9.349354 9.905675 
24.37643 12.80313 4.882795 
44.48283 4.938034e-14 4.940709 
59.15541 2.803418 15 
40.27541 18 4.082873 
44.68419 4.586853 15 
54.65614 4.938034e-14 3.269189 
0 5.204581 10.56289 
28.27626 22.99993 14.50084 
33.17275 13.61261 2.233409 
14.12095 18 4.769611 
29.75254 23 13.76602 
32.05009 23 13.68224 
36.37259 12.43376 11.32174 
32.88287 17.33607 0 
0 3.176793 11.20353 
56.30362 11.04323 1.041957 
16.07599 17.4965 0 
56.49281 2.920491 7.607042 
40.11871 18 5.893142 
42.16262 6.922414 1.151667 
57.99202 4.938034e-14 9.134183 
27.43754 15.90274 15 
55.83743 4.312867 0 
17.33022 5.902631 10.51243 
12.96585 5.041394 14.02695 
37.80627 11.58563 10.72583 
30.4047 22.71528 14.9492 
11.27701 6.121087 8.807544 
5.095582 12.30407 10.69206 
0.4249668 13.67136 9.967235 
60 4.439828 10.89901 
53.97673 5.582509 11.20998 
21.14225 10.81308 6.706754 
15.28423 4.361695e-14 12.06982 
0 3.967765 8.253353 
12.21365 4.938034e-14 10.54662 
44.68145 4.938034e-14 10.22683 
19.48043 18 11.71722 
58.37084 1.553123 0 
3.221818 18 5.420441 
26.7252 16.4161 15 
13.6291 10.15165 14.61555 
2.332467 10.77217 12.93343 
0 0.3489135 4.38399 
56.34403 8 14.28994 
28.32273 20.40246 0 
1.093592 4.938034e-14 5.424584 
50.94538 4.938034e-14 2.799584 
13.6598 18 7.498436 
40.63401 13.16311 0 
44.50706 16.17394 15 
57.85963 4.938034e-14 11.16564 
17.48609 6.216244 0.1435554 
21.00469 10.69245 9.33513 
33.81335 13.4585 1.474142 
21.65332 19.15332 6.007488 
13.0847 18 4.921305 
49.14886 7.560126 9.672716 
60 4.349838 3.600327 
49.25197 16.61857 5.186966 
48.96134 16.76999 5.657135 
11.21886 18 12.40314 
54.31564 7.517983 14.99766 
39.69881 10.07549 1.563491 
13.42474 18 6.457409 
16.50154 11.10241 0 
49.20268 3.666294 5.263238 
48.09165 13.58279 0 
6.390583 11.98498 11.3337 
14.71489 3.67144e-14 10.0338 
13.49314 10.73088 14.65118 
51.94095 18 2.638417 
11.28438 17.13203 0.131466 
17.81545 6.878896 14.09231 
29.81326 23 6.782107 
59.5593 13.36314 10.01763 
31.13232 16.95 15 
6.446429 4.306603 14.23421 
18.42089 7.816022 11.04106 
43.84861 1.986297 4.141467 
9.695498 17.26435 10.82912 
17.2194 14.47788 0 
57.9982 8.829701 2.428898 
40.76783 8.909345 10.6726 
59.68333 5.129971 14.9641 
16.03039 0.8987977 11.99765 
46.8666 4.574652 0 
44.91137 4.938034e-14 8.484344 
47.73664 11.39234 0 
47.61749 4.938034e-14 4.218425 
4.29741 4.331922 5.128212 
41.49966 9.188809 15 
35.0535 13.03753 14.8061 
46.20665 4.938034e-14 1.74795 
54.32607 9.246062 3.950416 
1.361385 16.22397 11.78599 
12.41302 1.70805 13.86312 
55.416 11.21839 4.778253 
37.78298 11.60118 1.026254 
3.239604 4.938034e-14 6.341485 
22.5 20.63098 6.17074 
0 7.080733 13.78984 
9.330277 5.542527 3.952224 
30.89899 23 4.143549 
48.62841 5.952791 8.465962 
55.25941 11.35872 10.3874 
17.24813 5.737473 1.186629 
8.11558 9.256151 3.554686 
43.25434 6.636933 0 
56.46192 4.963688 7.977454 
50.98437 6.723662 3.804534 
49.53394 12.25478 10.17736 
3.60247 3.259915 15 
40.56047 11.29617 0 
37.57306 11.74145 7.421233 
50.69735 4.938034e-14 1.808952 
45.20927 18 8.023245 
3.845995 12.67334 9.118574 
59.08246 6.769498 0 
5.180805 4.938034e-14 11.58862 
9.41522 9.908411 3.997622 
37.5 20.32113 14.23019 
48.62205 3.684862 6.570268 
44.02888 4.938034e-14 1.674002 
22.5 21.61836 1.150092 
59.2282 2.926962 0 
57.9324 10.53728 2.356781 
40.03401 9.746105 11.77779 
6.866011 15.08938 1.104052 
7.404582 16.30024 1.015449 
46.79266 4.938034e-14 9.327858 
9.89972 8.074502 4.31116 
59.3414 8.994864 10.53034 
40.5218 18 0.8326387 
58.21159 16.80855 12.35263 
49.19143 11.11871 9.738886 
48.79147 10.43846 8.97933 
39.54283 10.21228 3.754473 
50.60931 4.938034e-14 14.46472 
36.18254 23 8.253685 
60 4.296355 10.81747 
3.617613 0.4949291 0 
55.27708 9.68786 10.36953 
26.56586 19.40131 15 
42.33427 6.574324 10.53032 
37.76575 19.73425 5.771001 
34.3336 13.2819 0.1592454 
21.55416 11.15828 0.5487238 
10.31327 11.55663 4.6714 
1.96474 18 9.780367 
18.10954 18 5.165445 
25.39883 13.19108 13.71876 
57.52607 4.938034e-14 13.28327 
0.2539425 13.32863 9.362349 
9.93046 10.37204 1.035499 
56.08855 9.94379 5.762259 
1.021083 6.097744 15 
60 0.008825246 13.08103 
11.87486 4.938034e-14 12.60404 
11.32346 5.193456 8.643162 
4.30096 1.084448 5.121876 
55.97373 1.954825 0 
47.86545 11.31426 0 
21.38911 11.02958 12.53418 
51.91563 10.17322 15 
54.3833 13.22547 0.2559653 
48.29461 4.144553 0 
0 4.480474 14.45662 
58.90306 12.25845 11.39685 
0.1108519 7.812368 3.907238 
30.46684 13.9694 4.769682 
10.64725 6.346366 9.962081 
10.05904 10.57763 10.5656 
44.4045 4.938034e-14 8.331875 
24.18718 12.70981 0.6040165 
55.78954 1.043396 9.750872 
5.637241 3.571852 11.03053 
54.43431 14.85878 10.99587 
50.33622 15.84792 15 
10.86144 0.3986292 5.35321 
25.51254 13.22968 6.867829 
32.27195 19.04812 0 
37.24302 11.96198 11.98253 
41.9606 7.245074 2.513638 
2.92091 4.938034e-14 5.031063 
2.336204 5.089264 0 
0 4.965914 2.217752 
11.34625 17.97852 9.532496 
49.7348 18 1.968724 
56.17135 9.136844 14.03166 
44.14156 0.2281051 15 
46.69296 18 7.572731 
55.40905 5.841809 15 
0.01407778 11.71192 7.216837 
1.185226 10.71537 3.488296 
5.938408 15.82671 1.129572 
11.29743 11.37743 8.743017 
40.75526 15.98939 0 
1.050462 18 9.75715 
21.91662 11.40047 8.068899 
42.35102 18 5.279127 
57.55476 13.70512 1.967425 
8.422713 8.449914 11.38103 
8.489206 0.6943331 0.8310294 
27.91853 22.99922 14.50895 
3.625571 1.987241 15 
22.45498 20.00298 1.667932 
29.18213 23 0.9551636 
42.44637 6.347011 10.47064 
3.763217 7.183372 14.5149 
16.25993 17.99555 14.5506 
26.3275 19.41119 15 
51.56105 7.118936 0 
25.83908 19.19351 0 
12.70445 14.88229 0.01097226 
48.50317 14.563 7.377627 
43.96789 0.4899467 11.50254 
48.09701 17.81794 0.1145581 
7.396464 1.937852 3.507376 
54.84462 4.938034e-14 10.73056 
49.18295 9.092156 15 
29.81921 13.98815 12.08426 
40.05237 9.725173 7.549784 
5.797342 3.11383 3.894699 
6.185254 14.83381 3.733726 
10.67973 1.998549e-13 13.73939 
23.12083 23 1.429325 
16.92196 4.974957 0.6254382 
16.7092 4.388608 0.5752404 
12.31313 18 9.038925 
25.2804 13.54027 15 
5.06919 4.310441 14.5239 
57.75742 17.63663 2.194586 
49.83859 9.457047 4.520022 
39.08377 17.72625 14.99894 
4.107779 17.51114 1.144041 
0 4.285681 13.07068 
55.96824 8.898556 0.8691834 
30.12312 13.99193 7.228482 
9.760622 1.107244 13.96877 
21.84246 11.35091 5.582529 
6.874854 9.510783 11.44317 
11.39117 7.366061 6.613153 
5.597047 12.90476 13.87517 
28.85886 23 11.24664 
56.49647 15.6552 7.371408 
11.45381 13.42237 6.971362 
10.10345 13.54976 10.52364 
8.093416 11.91087 11.45104 
11.44215 9.076245 0.9250065 
50.65495 7.676883 11.04159 
46.10228 18 5.267534 
5.374857 7.324324 0.8253504 
14.5517 17.81032 14.88654 
37.55343 19.94657 0.5139251 
55.1476 1.94986 10.49 
10.83111 12.37718 0.7780293 
60 3.392368 1.645269 
3.960489 17.9754 10.0202 
37.5 22.42933 5.736861 
33.27095 21.41204 0 
22.50597 22.56825 12.07871 
51.28923 7.320885 3.693798 
9.898655 5.88778e-14 11.41518 
42.76299 14.23563 0 
57.19588 5.828731 0 
10.33545 4.938034e-14 11.59527 
14.65755 2.259349 0.9060303 
12.90329 4.938034e-14 10.03544 
11.07428 14.74405 9.287316 
2.514063 6.324287 14.96701 
16.23025 9.77652 0 
23.27671 12.26081 9.896503 
21.88798 19.38798 12.54283 
3.979913 5.386131 5.617985 
5.395908 18 11.95936 
55.67786 17.76132 14.1945 
0.2925941 10.90785 5.495027 
50.4342 16.47392 4.080773 
17.79679 18 9.49272 
49.46365 15.58268 10.08747 
31.92987 16.44757 0 
11.14935 18 1.717667 
4.86485 9.249786 10.49934 
60 5.458293 4.079878 
56.49344 10.6166 7.349822 
3.605428 16.10904 6.613864 
54.9038 6.45075 4.313785 
16.67511 4.281446 8.962934 
0.6682355 8.76586 4.43778 
13.48999 2.16154 13.94253 
48.71442 18 1.883295 
6.203521 6.20968 11.28087 
53.22647 18 14.11423 
6.346877 15.66165 11.32256 
39.31164 18.18591 0.4602824 
0.09010816 11.73107 6.417139 
48.59301 16.78327 8.297261 
20.10045 18 4.637063 
58.83081 16.99799 11.51861 
33.15771 20.98331 0 
28.11676 13.86911 9.823292 
51.66565 10.97377 3.591493 
0.4736112 6.834979 14.99769 
40.03111 9.749415 0.7370249 
56.37473 3.505253 8.446465 
25.50601 14.9796 0 
42.70065 5.831403 11.84439 
43.57149 14.5275 15 
35.13206 13.66771 0 
52.73767 15.04455 11.48081 
40.63643 16.11044 0 
20.03789 10.95241 15 
11.2994 13.34022 8.733847 
8.296261 11.47495 3.585669 
35.60915 12.81025 0.4928935 
40.2081 9.547604 0.02213448 
0.7253544 14.67943 4.291335 
1.111687 0.4963684 0 
36.69535 12.27459 11.56722 
37.5 21.9431 4.791255 
33.59188 23 5.451478 
0.9402053 8.162932 3.877282 
51.53411 15.4899 3.620258 
41.72353 7.599881 0.5592853 
28.53429 23 2.452845 
16.94781 5.042453 9.055785 
25.90006 13.36122 13.30065 
29.02776 22.2898 15 
17.63467 12.77074 15 
36.89037 23 3.449703 
11.8547 7.014489 1.00002 
9.975943 17.84546 10.81796 
20.00891 9.795056 6.434887 
26.93912 23 8.985246 
49.45876 2.59626 10.09629 
14.48957 9.525412 0.2248076 
3.997736 10.15517 0.8722882 
58.00588 1.081788 0 
3.11484 4.938034e-14 10.95217 
49.27647 13.32781 5.151478 
45.17104 4.336554 0 
55.38809 17.64043 10.29723 
14.47888 18 7.22359 
37.5 20.90573 1.732554 
6.864028 6.65022 11.44287 
0 4.567959 8.414471 
40.90055 11.55812 15 
39.70242 10.07232 11.93129 
21.33934 18.83934 6.706041 
17.18831 5.617117 0.3138368 
33.58051 18.46822 15 
17.70401 6.654674 12.64171 
9.863785 7.501693 13.87068 
29.08362 13.93994 8.533864 
33.03661 23 7.601135 
21.16998 18.66998 7.643916 
54.88091 0.7759826 4.302028 
33.07666 19.15922 15 
22.5 21.23243 5.486391 
52.43752 15.55136 3.511526 
55.84962 15.58911 5.334153 
43.2846 4.325653 3.009501 
43.43076 18 5.774634 
17.75195 6.751132 2.786431 
3.112611 11.81429 1.427933 
5.069693 18 3.135738 
10.41838 11.56228 4.78084 
58.80301 16.23653 11.55329 
37.97698 11.47156 3.53883 
6.56928 6.752313 11.37913 
8.903523 2.364187 3.755825 
37.49999 20.03455 7.474432 
60 2.750417 7.523802 
0 6.016591 7.042326 
29.8523 13.99032 2.313165 
13.82943 5.448167 0.8060437 
0 4.77563 5.774425 
50.32103 14.86794 15 
13.56319 17.69674 0.04210392 
6.317128 5.226082 11.31085 
40.10362 18 7.580078 
31.47474 21.63432 0 
34.59689 13.19253 1.027043 
0.8914242 15.60938 3.976943 
46.10983 13.59284 15 
24.33549 12.78295 13.53421 
22.5 21.15259 3.625465 
24.92604 23 9.237356 
50.28138 7.329928 0 
20.02524 18 5.272138 
4.084765 10.92733 5.429204 
25.99319 21.94379 0 
49.47743 17.01279 10.10272 
48.71697 12.42237 8.778867 
18.1176 18 12.13532 
56.47303 17.40135 7.929058 
58.04669 18 6.966174 
47.48787 12.78403 15 
16.42964 3.428131 7.565843 
19.75788 18 0.7010021 
44.46753 9.984331 0 
12.36005 4.938034e-14 10.44311 
3.691334 14.77441 1.050953 
34.47697 23 14.43071 
22.76871 13.76138 0 
9.041647 11.2057 3.813003 
42.50005 13.77058 0 
51.81783 0.05875674 3.559631 
37.5 21.44986 10.8385 
0.4083698 11.06569 5.068743 
53.74641 3.020299 15 
60 5.101495 2.905489 
60 0.51586 9.989198 
10.78175 2.735811 9.764544 
36.06795 13.71673 0 
48.99394 4.467939 9.419159 
9.572647 4.046237 13.88178 
5.716979 4.938034e-14 3.627204 
9.922671 17.0703 14.4869 
58.55953 14.54595 11.88045 
15.17529 18 3.598855 
12.19583 2.162107 13.86324 
33.97433 23 13.47751 
27.28934 13.70453 8.04985 
30.65217 23 4.641138 
15.42889 3.047556 0.7241322 
55.25481 9.690202 4.61328 
1.035308 13.4826 11.29217 
55.85162 10.43583 9.676359 
53.23222 11.82893 0.05665968 
56.24054 2.473734 8.911129 
55.83992 4.938034e-14 4.19083 
29.47901 13.96585 0.426473 
24.40586 15.06742 0 
12.55769 3.165388 1.095817 
22.85994 22.97814 6.912571 
0 7.21382 12.44478 
53.7668 13.43418 3.716748 
49.70001 11.7862 0 
49.06117 18 4.063997 
31.41343 23 12.07122 
54.76734 13.77386 14.63809 
55.71437 8.649422 5.139622 
22.44142 19.53527 0.04964425 
43.67217 17.30841 0 
7.186922 12.4446 1.134802 
36.04043 21.25213 15 
39.94835 9.84379 12.37803 
50.01945 12.42054 4.374137 
38.44097 11.16153 2.612119 
3.568772 12.35998 6.781696 
23.8367 13.05385 15 
21.18097 10.84704 12.9352 
10.66114 3.398228 9.937799 
27.4172 23 11.56225 
10.54792 16.06423 0.4748487 
55.25312 16.52592 4.610408 
8.702075 0.6760168 0.8646098 
43.02685 7.557676 0 
56.61732 4.938034e-14 12.25722 
11.44317 6.368133 8.154314 
60 3.54642 4.038528 
8.675531 9.12771 13.86352 
51.88627 12.44624 11.44351 
54.12693 12.56168 3.851666 
60 5.54866 10.99123 
58.96549 6.341727 0 
22.52256 22.64267 3.72214 
5.569428 14.44521 10.99851 
40.85635 18 4.448677 
49.3485 6.417725 0 
22.5 20.23827 0.8999412 
55.96422 12.33628 0.8630004 
17.48904 6.606722 0 
48.86894 4.938034e-14 4.287067 
3.52197 6.00945 7.206298 
21.70979 19.20979 10.93931 
58.51544 15.5813 3.046149 
32.83007 23 0.6436095 
31.48825 13.90245 2.82843 
13.74825 18 13.27235 
57.26027 5.570565 15 
20.4625 17.41187 15 
37.76012 19.72403 14.6031 
26.38534 13.52472 2.835659 
4.678482 2.33834 4.684693 
49.26808 7.586632 5.171369 
3.550761 13.72412 6.934692 
12.36979 13.42614 14.68526 
48.35645 4.938034e-14 14.84347 
5.681845 4.029501 11.05164 
32.64452 22.4331 0 
13.07932 7.857292 14.25118 
41.7883 7.502942 13.80121 
24.42895 23 3.109011 
53.20752 17.72969 0.1020324 
4.719332 4.938034e-14 12.29862 
32.09826 15.24987 0 
27.20612 13.68798 0.6517692 
51.65083 10.71129 11.39863 
43.23932 4.459064 11.36957 
14.31202 4.938034e-14 12.33124 
43.28465 18 4.081093 
13.13059 8.414784 0.6917157 
0 5.172576 9.607122 
11.91653 18 0.7920107 
27.84707 13.81547 0.3362485 
58.093 4.938034e-14 11.77872 
47.60246 4.938034e-14 9.452324 
12.58525 18 13.57762 
31.19277 23 7.350586 
50.64711 7.773239 15 
36.82306 23 2.30707 
0.1904724 9.491789 5.911411 
20.01985 9.807532 2.123514 
31.98329 19.53505 15 
3.692333 17.3056 6.314809 
37.5 20.86911 11.87727 
43.77347 14.76266 0 
0 6.13016 11.01044 
37.56691 18.97279 0 
59.31215 7.980511 14.63106 
52.49298 9.315683 15 
18.83756 8.439618 4.837481 
56.32874 5.002342 8.622838 
3.566182 13.13184 6.805666 
51.84091 13.81543 11.43923 
25.37706 13.18369 1.852451 
7.730097 5.557421 3.515307 
0 2.953092 4.624397 
39.5829 18 11.94594 
57.33691 4.938034e-14 14.69697 
2.584139 14.14941 13.15137 
2.439656 4.938034e-14 10.28953 
20.68645 10.41336 7.197171 
17.23753 5.716146 5.763461 
23.54599 23 13.6464 
59.32445 13.46297 4.423759 
37.5 22.04717 10.67688 
60 0.3287774 5.352646 
35.81664 23 9.330025 
48.97171 4.097028 15 
21.61597 12.76539 15 
48.50937 14.29178 7.535194 
0.8430677 14.51809 10.91831 
19.79783 18 3.278593 
58.53305 17.98595 3.742767 
55.32458 5.10557 10.31669 
34.75948 13.13734 2.931694 
46.39073 7.700065 15 
5.305412 9.761314 10.83463 
25.79969 23 2.466997 
44.1188 10.39688 15 
59.43753 4.938034e-14 13.77306 
56.36667 8.380574 6.519958 
48.55798 4.08087 6.84228 
16.93823 5.017419 2.841474 
22.01479 19.51479 1.333016 
1.964473 17.51595 2.461201 
33.1464 23 2.200527 
56.47786 15.81766 7.177574 
10.20635 16.69011 4.561766 
42.85524 5.517921 8.335197 
27.14945 23 11.21924 
0 3.751327 11.65571 
22.6586 20.28658 0.1369824 
52.01636 14.67926 15 
52.18517 4.938034e-14 14.57823 
7.351743 12.8731 3.509541 
54.62003 13.8209 10.87911 
46.96237 13.99356 15 
32.01858 23 6.354074 
2.207424 4.938034e-14 13.08854 
18.88807 11.07953 15 
12.74998 8.487074 14.24416 
16.12527 1.863774 3.744383 
15.19182 7.82158 0.2488068 
43.69656 2.750688 3.008362 
6.952475 10.97656 11.44963 
53.34674 2.534876 3.599375 
8.949011 2.886495 3.776608 
4.265937 15.35766 5.166731 
3.437884 12.63112 1.201002 
48.00736 6.877747 0 
10.3719 5.563361 4.733014 
56.34473 1.026474 6.450928 
16.26615 2.686604 13.06979 
50.68306 11.25567 3.946887 
0.2833132 3.312066 0.05145252 
57.72611 10.64003 2.150112 
57.73476 8 0.9467976 
0.5937437 4.938034e-14 1.788892 
56.771 8.815259 1.366742 
15.70562 18 9.082649 
0.9987464 8 12.34216 
52.40969 4.315455 11.49271 
18.42881 7.827878 1.917597 
24.41895 16.0818 0 
24.23067 12.73126 9.100785 
58.6439 11.34283 11.75439 
48.87174 10.82562 9.170109 
1.657937 11.18199 12.1895 
56.12855 1.659756 9.150724 
56.89244 17.99294 7.901325 
60 0.8230786 12.30227 
3.149102 5.588841 14.87819 
15.53699 18 4.198793 
24.77864 12.98055 7.069664 
56.95798 6.880279 15 
0.04649726 13.68399 8.224256 
19.0295 18 6.745903 
10.84596 2.542253 5.330187 
45.60419 4.938034e-14 6.858496 
22.71939 22.12696 14.91158 
60 5.846773 5.071749 
26.67815 13.88034 0 
27.08214 16.19065 0 
29.1953 22.48207 0 
58.64503 14.05772 3.226776 
14.49839 8.470669 0.3595972 
35.18686 12.99226 4.494664 
55.94891 1.231302 0 
7.315834 2.687471 0.7874397 
29.8856 16.57899 0 
58.68254 16.79884 3.275392 
47.2405 12.58281 15 
11.11921 18 11.7095 
35.62375 12.80304 14.54923 
17.56958 18 9.61572 
22.60005 22.79721 8.152846 
13.94282 9.174185 0.4198728 
19.68981 9.431187 7.641541 
33.98243 19.61636 15 
56.39785 3.7122 8.360849 
36.34604 23 13.74524 
55.69605 1.231951 9.884672 
6.42206 11.25844 11.34179 
1.555048 18 10.65953 
0 2.890489 14.29702 
43.91243 18 3.315914 
0.1736626 17.86528 7.638618 
59.34993 8 3.271523 
7.265794 16.1891 13.96651 
11.32467 0.8753716 8.624914 
16.93959 5.020983 4.242117 
53.05199 1.584155 15 
43.6824 2.821935 5.213675 
22.61139 11.86469 0.1578965 
51.26258 2.657788 15 
21.77059 19.27059 12.75375 
31.85314 13.8751 13.09069 
37.5 21.94283 13.90326 
0.33643 1.088698 0.02815981 
42.413 18 2.371359 
43.63656 3.052366 6.177846 
14.45477 2.703557e-14 7.971084 
39.79259 9.993241 7.237842 
57.22431 2.262305 0 
6.405468 13.9622 3.659602 
29.52029 19.54154 0 
23.53635 12.38885 2.86075 
41.55334 7.854587 5.551917 
58.72852 17.88764 3.675897 
5.006155 18 2.797415 
40.33142 9.406976 9.739363 
37.5 21.47863 11.96391 
42.26151 15.98389 0 
54.76216 17.52155 14.63341 
17.43325 18 4.002177 
29.0252 17.25093 15 
49.12728 13.33523 5.367617 
31.59608 19.18686 0 
19.43699 18 0.6942631 
0 5.103837 6.94575 
7.761464 11.08531 13.86422 
53.17401 16.7255 0.04385154 
18.86042 8.473819 11.75006 
20.84923 18.34923 9.990121 
18.59011 8.069273 8.829832 
43.828 2.089955 2.292529 
42.87015 17.18345 15 
16.86371 4.822856 10.85438 
56.64392 18 5.513458 
21.05437 10.73601 2.691652 
44.56197 4.938034e-14 3.607769 
0 1.309687 11.36008 
37.3739 16.71967 0 
56.24202 11.13291 8.889635 
12.96727 13.49903 0.1294582 
30.82355 13.94602 1.587518 
54.44292 18 12.26364 
4.193679 14.07252 1.065057 
45.70662 10.79127 15 
42.28685 6.670487 5.235022 
56.42232 11.0563 8.241007 
59.68347 12.5854 9.592472 
20.19906 10.69687 15 
6.188585 1.862727 0.4743304 
0.2225742 7.91483 2.470457 
43.07598 18 14.43781 
56.37782 4.938034e-14 9.567813 
43.56506 3.411808 11.91157 
36.46582 23 14.32016 
46.75386 18 7.396999 
22.5 21.15825 4.382387 
57.20494 8.31389 1.672357 
11.49733 5.12415 7.433211 
55.27206 7.381057 4.632012 
43.00227 5.157391 12.93125 
36.52084 18.69814 15 
10.49521 13.32224 0.7597062 
2.220821 8.005923 2.195927 
24.46706 12.84783 4.516047 
56.80343 15.87982 1.364583 
59.45068 4.938034e-14 6.576701 
34.61196 23 11.6866 
37.20842 11.98509 9.856754 
3.255803 7.584028 14.59345 
59.90533 15.33012 6.403107 
10.87602 2.711552 5.37304 
6.086429 0.4940815 11.23789 
22.77088 22.94275 13.62829 
51.03012 13.50971 0 
30.89096 23 12.02701 
10.89942 18 12.72998 
21.79772 11.32102 2.199875 
14.01698 3.274402e-14 8.317435 
29.73862 23 8.639317 
48.73817 7.851895 8.844073 
37.87683 19.62317 4.094219 
36.65483 23 13.65117 
36.66273 16.44245 15 
37.69116 12.29061 0 
0.2276174 8.787025 5.76664 
29.25555 14.76337 0 
17.75451 6.756298 11.66617 
42.60252 6.030366 13.91725 
47.39633 18 9.173575 
52.74353 0.7155918 15 
56.59657 16.19169 13.76685 
53.23734 10.87544 14.94515 
40.82225 17.95872 14.69685 
28.99501 23 10.75006 
49.27132 16.75842 9.850582 
39.24618 10.47243 0.1496539 
37.163 12.01544 1.522999 
47.58424 4.938034e-14 10.43182 
16.03828 1.007711 10.72555 
20.13879 18 10.57021 
60 4.688511 12.4625 
16.0033 0.09771685 14.13071 
52.20749 12.48561 15 
7.538083 1.364536 3.502147 
40.45036 18 1.861032 
56.65387 11.1277 13.72341 
19.8383 17.63522 0.02059023 
20.34633 18 5.308647 
10.77807 12.00123 5.230483 
41.21301 8.363927 11.16209 
36.37502 22.11932 15 
27.07754 23 9.760193 
57.1236 3.402375 0 
36.01325 12.61097 14.68396 
0.2025542 10.45162 5.859377 
51.54701 12.27624 15 
48.67863 3.240479 6.35985 
29.22042 23 9.535889 
7.025387 2.419404 11.45793 
52.26723 17.93421 0.2525767 
5.731706 10.19034 1.045189 
16.23997 7.27902 0.002932084 
7.489656 12.77208 3.509466 
47.55243 14.75436 0 
33.46096 15.5027 15 
14.26077 8.817833 14.6196 
5.77075 11.88811 13.89021 
12.62413 17.82577 14.87209 
12.25979 5.667796 13.97942 
14.49401 4.938034e-14 12.14769 
3.575718 0.06103635 15 
47.87534 18 3.138562 
46.4432 9.702021 15 
0.00435267 0.3633124 0.4502468 
21.38915 11.0296 4.137583 
53.53177 1.592498 15 
59.87788 16.0545 8.827509 
46.23161 16.02055 0 
33.0179 20.6789 15 
16.00557 0.1646319 7.359167 
11.85081 5.910252 1.048763 
52.6842 9.050838 0.006804301 
24.00994 22.48813 15 
40.31157 9.429617 3.166353 
43.52255 3.62467 4.489538 
58.13405 4.938034e-14 14.29903 
31.14428 16.55829 15 
44.54868 15.34722 15 
26.41858 23 3.258638 
58.21959 8 2.238143 
15.45358 9.486592 15 
45.89338 3.625569 15 
47.48195 11.9134 15 
10.63777 10.93251 5.029246 
3.619695 5.796677e-14 0.09066376 
16.07315 1.350878 9.767583 
32.97668 23 3.9475 
4.967485 9.825253 4.411849 
0.8397845 10.57076 10.92463 
8.33597 11.14574 13.87894 
8.280624 15.15313 11.41449 
49.03558 6.837091 9.489311 
37.5 21.42792 11.08185 
48.47609 16.40199 15 
41.89738 18 9.542513 
0 5.356782 0.5911031 
46.71317 4.938034e-14 3.827554 
8.770975 1.86588 11.28566 
39.6602 10.10935 7.801914 
37.66863 19.83136 2.607626 
39.83681 18 13.7409 
14.13345 11.94235 15 
44.26332 17.07996 0 
59.68718 7.962305 10.67894 
5.724102 8.604139 14.03811 
55.35596 18 13.08751 
10.49498 1.693736 1.111127 
24.34643 12.78834 11.46301 
5.985666 13.87262 13.86163 
60 6.612171 1.231719 
55.91218 10.10884 0.8409201 
55.50285 10.05218 0.6455784 
37.05566 12.08716 0.03271669 
5.227804 4.590202 14.45235 
10.24375 4.938034e-14 4.608268 
0.6565176 4.938034e-14 11.13907 
53.64893 4.938034e-14 1.38591 
15.5039 9.021561 15 
55.00453 14.67218 14.55996 
13.92153 4.306322e-14 9.967916 
51.9067 6.427701 0 
38.96398 10.71992 0.6332656 
33.62564 13.52222 8.132528 
5.132505 3.741055 0.4263687 
60 4.92746 7.752931 
43.17864 8.948603 15 
44.87878 4.938034e-14 14.79703 
17.10482 17.4945 15 
17.03911 5.280824 11.69123 
0 5.049562 10.31594 
8.102639 8.497927 1.127578 
31.62799 15.83134 0 
53.42274 11.53971 14.93246 
1.447891 8.885516 3.090784 
57.58776 16.81173 1.993025 
4.877393 5.040212 4.484052 
17.11978 5.479236 6.402897 
0.7589839 10.95208 10.74716 
22.5 20.88947 11.96896 
56.24988 12.769 6.119618 
46.02851 18 6.953495 
14.71957 16.06761 15 
9.401937 7.663584 3.989242 
22.21785 11.60174 1.148207 
11.44762 14.09401 8.107098 
54.64257 1.971967 0 
7.54667 4.183029 14.06476 
44.46795 3.70928 15 
30.32633 13.97861 11.60145 
31.48861 13.90243 10.33842 
16.04448 18 4.33187 
17.00711 5.197285 12.65834 
56.06272 15.79801 5.707845 
55.2429 15.04003 4.599275 
43.98148 0.2826404 10.68027 
48.51109 15.09107 7.566759 
32.55725 23 13.64345 
37.5 20.53423 9.9238 
0 0.1674619 11.09461 
0.8609302 13.15869 10.96189 
49.2961 15.70097 0 
3.557079 6.600026 6.858333 
16.73118 4.457709 9.023223 
5.880988 2.377156 3.856297 
40.12511 9.642223 4.449534 
50.2568 15.44815 0 
16.88943 4.890003 8.581731 
42.48635 18 0.8668186 
9.820343 7.11918 13.86451 
29.93806 16.60904 15 
22.49809 15.71573 0 
48.9482 8.253633 5.684824 
2.169505 4.938034e-14 7.087764 
13.75064 18 12.66774 
3.53202 4.938034e-14 3.0086 
43.7348 11.45278 15 
4.435634 2.411265 10.06817 
52.61447 1.980556 3.508295 
18.92289 8.556689 1.883373 
53.94778 6.030252 11.22211 
59.64802 17.40075 9.758302 
46.66822 13.13926 15 
59.99223 7.587483 10.49805 
15.3114 18 7.158687 
9.879273 18 1.929936 
53.65835 12.23077 14.90432 
24.93577 23 5.845948 
15.78612 9.331858 15 
55.97833 11.55773 5.529994 
15.07679 11.75075 0 
27.86578 16.70353 0 
10.79056 13.11933 5.248585 
3.51987 1.116041 15 
49.18562 5.228549 9.721697 
36.05993 18.92239 15 
16.27092 2.676094 6.959477 
0 1.156182 8.22341 
35.01989 21.77358 15 
34.32273 13.28559 0.7231066 
15.14468 15.69409 0 
59.05061 2.534276 15 
46.7752 16.79009 15 
7.995151 7.449333 13.88094 
4.856822 3.658349 10.49641 
54.26312 15.44031 11.08355 
26.34042 14.84327 0 
6.787106 14.94273 1.110557 
0.3768395 7.114918 14.98267 
38.12495 19.37505 7.175076 
37.5 20.59309 11.54747 
50.23089 15.07563 4.216613 
17.08373 6.594958 0 
16.27872 2.762211 1.650817 
13.05495 4.938034e-14 9.96332 
48.61659 2.060472 0 
50.31775 4.938034e-14 13.4657 
3.788129 3.59764 8.976019 
9.392716 17.45147 11.02047 
17.40889 6.060916 14.43714 
15.76264 0.5481097 0.865617 
0.3265112 2.046738 14.96869 
9.802907 5.016526 1.13468 
58.75504 4.938034e-14 6.538198 
51.78555 15.78409 11.43066 
0.5180711 17.60925 4.836718 
49.05399 8.860098 9.5182 
9.136061 11.37651 1.06688 
34.31878 23 13.13142 
49.72527 17.69389 10.42278 
47.26254 8.353359 15 
27.03057 13.65306 7.920901 
16.45827 5.853217 0.1398202 
10.97075 15.90637 5.514019 
40.22732 9.525681 7.347662 
3.903301 9.64376 0.9285772 
60 1.003279 10.16587 
8.2612 4.316386 11.42181 
43.91376 1.315771 1.003851 
43.19125 4.600648 10.04101 
5.888964 7.611981 0.9261151 
53.98011 14.43766 3.788658 
48.79149 17.17068 15 
36.2516 12.49343 3.638239 
48.15868 18 10.3244 
0.1038609 14.14311 8.707769 
46.28882 3.991074 15 
0 6.921302 11.79908 
0 5.696119 11.17124 
41.68847 7.652342 2.573575 
47.25251 3.114654 15 
56.36506 4.938034e-14 6.353907 
27.231 17.98028 15 
29.3387 19.97367 15 
22.92597 12.07489 2.572087 
0 2.900289 7.318367 
21.72519 19.22519 0.6578553 
19.14731 8.812584 3.994712 
39.21326 10.5013 10.55987 
12.86078 5.405342 0.9643217 
41.15087 8.456921 7.871742 
59.46078 15.5924 4.741116 
11.45698 15.10362 7.003187 
48.53909 10.94713 8.039907 
12.27486 8.850023 0.8074576 
0 6.154891 12.40731 
43.98968 0.1574659 1.475587 
54.5358 11.68442 0.2911418 
6.026809 1.93294 14.55807 
36.22142 14.59729 0 
3.558235 3.399414 8.170991 
59.90047 17.77557 7.422546 
26.34062 23 10.58486 
47.93586 18 2.624528 
55.82339 4.938034e-14 9.774956 
2.680823 3.424701 0 
14.40344 18 6.365989 
56.23335 18 4.139277 
51.01797 7.305027 11.20695 
36.22755 19.86984 15 
0 2.0462 7.419437 
42.4384 9.075857 0 
39.71613 10.06031 9.394694 
59.30727 12.47145 10.62119 
8.619231 6.207193 3.669259 
1.440703 8.353795 11.89585 
35.16998 12.99799 2.440726 
54.87267 6.965137 4.291593 
42.77288 5.684922 2.632692 
60 7.36987 10.86425 
47.73698 17.84694 14.85747 
33.29602 14.05949 15 
38.09673 11.39154 14.48615 
41.22407 8.347366 3.916218 
40.63461 9.061262 13.79836 
46.03393 4.938034e-14 1.730815 
43.27629 18 13.06125 
11.34284 4.938034e-14 3.346519 
30.96034 23 6.19966 
0 4.120497 12.77698 
42.66204 5.909674 10.97743 
41.16302 8.43873 9.463859 
5.499185 4.038456 14.44852 
6.852819 12.82951 13.85846 
60 5.821442 7.554653 
52.60229 17.49856 11.49174 
32.02181 23 12.65248 
48.66765 16.35119 8.640827 
59.71275 13.86883 9.487809 
55.5906 6.666555 10.03118 
21.2011 18.7011 4.381108 
29.96278 23 10.61623 
11.48627 13.85242 7.244919 
59.00136 3.80382 0 
7.283302 17.93739 11.7419 
36.85885 23 7.833748 
26.05268 13.41303 5.117045 
13.90426 18 5.315041 
11.26382 5.091517 6.153495 
54.63709 3.1153 4.129545 
29.69803 13.98021 11.12646 
9.187176 14.86233 14.13326 
16.25091 2.610166 12.66827 
43.43545 3.881265 1.558312 
7.51733 3.227443 0.8640963 
29.22445 23 12.96401 
49.86239 12.49206 0 
37.66049 19.83951 1.675445 
55.0255 11.65256 4.407514 
25.16456 13.11155 13.5946 
50.43909 4.938034e-14 12.93489 
7.21675 14.47503 3.512218 
32.77216 23 2.181145 
55.53834 5.153522 15 
25.02278 21.56094 0 
21.69696 17.52105 15 
60 7.135946 5.932864 
9.529517 4.754946 13.87875 
33.12143 13.62282 11.39034 
0 5.042363 12.54173 
56.33702 17.45487 8.626286 
48.6935 3.439281 8.700903 
57.35567 17.86279 2.007535 
25.78169 17.08116 0 
11.48549 11.60113 7.699961 
17.27703 18 12.2248 
42.16135 6.924968 14.04361 
13.60191 1.401305e-14 4.455575 
31.37702 13.90975 1.043427 
7.849317 12.71625 1.109945 
20.02031 18 6.911422 
27.76572 13.79929 14.61496 
15.63275 -1.758326e-14 1.961017 
50.55013 11.12108 0 
59.74244 10.03793 5.647792 
16.79034 4.631277 11.31713 
32.70571 23 4.512346 
4.750759 11.44659 1.00308 
37.438 20.22799 0.259592 
7.029871 10.25609 3.532229 
50.31427 6.313712 15 
52.1844 2.915257 3.525081 
4.322533 4.164698 0.2720498 
5.715691 5.318737 14.2785 
38.59055 18.90944 4.922158 
52.2878 17.46367 11.48287 
23.0824 12.16499 0.08794837 
3.55909 8.439203 6.848046 
52.73418 9.440682 14.99111 
37.53665 18.32249 15 
8.307047 0.8955879 14.18383 
20.3752 17.98659 14.61282 
46.903 4.938034e-14 5.201071 
41.90869 7.621105 0 
21.97794 11.44144 3.780283 
53.26783 14.76208 14.94733 
3.537392 3.036267 7.953216 
40.03205 12.80019 15 
59.994 11.21542 7.652921 
55.06068 6.738724 15 
55.81201 5.427559 15 
39.804 13.7744 15 
10.87815 5.221326 5.375479 
8.87862 13.33713 11.24831 
3.358727 12.88936 13.74773 
53.6468 11.55346 3.675381 
3.182228 4.518552 0 
16.43744 3.457604 12.49845 
55.6836 18 11.99894 
33.44787 13.55789 2.835959 
3.635365 2.827816 8.481987 
7.665687 12.69033 1.118555 
45.06911 10.00383 15 
14.81032 17.92726 0.2417881 
10.84941 18 1.108908 
58.55936 15.10339 3.106891 
56.98881 4.938034e-14 3.994545 
19.87486 9.642198 9.655686 
54.65351 4.868226 10.86101 
6.396729 7.683896 3.663723 
5.360423 2.161943 4.132002 
5.175279 7.108185 10.74316 
57.27214 12.14145 1.722598 
44.20918 4.938034e-14 13.25245 
17.43755 6.118578 4.324703 
2.932998 16.67365 13.44696 
42.99912 5.166662 10.32177 
20.58917 10.32804 3.819137 
17.16922 5.578722 6.543076 
0 3.454364 4.281015 
49.03189 17.32647 9.467373 
40.32504 18 2.245788 
43.80836 9.822159 0 
37.5 20.12069 0.5185848 
